ncols         205
nrows         93
xllcorner     0
yllcorner     26
cellsize      2
NODATA_value  9999
9999 1934 1926 1903 1882 1860 1838 1816 1793 1763 1729 1704 1701 1718 1758 1799 1821 1849 1871 1876 1869 1847 1820 1800 1736 1695 1712 1738 1760 1774 1780 1778 1777 1781 1792 1799 1800 1805 1837 1877 1897 1892 1852 1821 1796 1778 1761 1764 1785 1812 1864 1904 1927 1944 1948 1948 1943 1937 1928 1921 1925 1935 1980 1994 1964 1970 1972 1975 1975 1970 1964 1955 1933 1900 1863 1887 1920 1945 1967 1983 1997 2010 2023 2035 2036 2032 2030 2026 2014 1995 1963 1927 1891 1857 1820 1806 1819 1844 1872 1890 1907 1924 1934 1952 1990 1999 1977 1938 1908 1894 1919 1973 2005 2022 2044 2066 2081 2086 2084 2073 2053 2030 2010 1986 1948 1944 1972 2000 2013 2031 2048 2055 2026 1998 1999 2008 2041 2060 2056 2030 2004 1996 1974 1933 1902 1903 1906 1905 1902 1893 1869 1841 1819 1807 1801 1820 1842 1854 1854 1868 1871 1868 1860 1843 1831 1813 1797 1780 1749 1728 1707 1696 1689 1687 1692 1703 1726 1737 1752 1759 1755 1755 1767 1789 1819 1843 1865 1886 1900 1900 1900 1899 1894 1884 1872 1863 1869 1883 1892 1874 1827 1806 1787 1775 1743
9999 1915 1914 1898 1878 1857 1837 1816 1793 1765 1735 1707 1698 1703 1747 1799 1819 1843 1864 1871 1867 1848 1821 1800 1721 1699 1706 1726 1745 1755 1759 1753 1749 1753 1770 1792 1800 1824 1850 1879 1898 1887 1859 1830 1803 1779 1754 1753 1779 1810 1862 1900 1917 1926 1924 1916 1910 1905 1898 1893 1895 1921 1999 1965 1925 1947 1952 1957 1955 1951 1945 1936 1922 1894 1848 1858 1902 1928 1948 1965 1978 1990 1998 2006 2011 2010 2010 2006 1997 1979 1950 1918 1885 1847 1814 1802 1811 1843 1861 1876 1888 1897 1899 1920 1968 2002 1987 1945 1899 1898 1913 1958 1997 2015 2034 2055 2071 2080 2079 2067 2045 2023 2005 1977 1940 1926 1951 1982 2001 2009 2016 1999 1986 1980 1992 2009 2033 2054 2054 2034 2016 2003 1985 1947 1909 1898 1895 1897 1895 1879 1855 1836 1828 1828 1839 1863 1889 1902 1909 1912 1911 1909 1905 1894 1878 1859 1839 1810 1784 1756 1725 1699 1696 1703 1734 1758 1777 1789 1801 1796 1794 1793 1795 1810 1842 1871 1899 1901 1901 1901 1901 1900 1900 1896 1881 1873 1876 1890 1894 1862 1814 1779 1748 1718 1699
9999 1900 1901 1893 1877 1856 1833 1812 1789 1762 1736 1708 1690 1695 1729 1780 1809 1831 1855 1865 1862 1845 1821 1801 1705 1693 1698 1714 1728 1735 1737 1728 1721 1721 1746 1780 1803 1828 1854 1881 1897 1891 1867 1834 1807 1783 1751 1742 1770 1806 1847 1879 1898 1901 1901 1890 1876 1864 1855 1864 1891 1947 1996 1917 1907 1925 1934 1939 1936 1933 1927 1920 1912 1886 1838 1837 1886 1915 1934 1949 1963 1972 1977 1981 1985 1982 1979 1981 1986 1969 1940 1911 1878 1841 1807 1799 1813 1833 1849 1860 1873 1888 1899 1900 1950 1996 1981 1924 1894 1889 1903 1951 1996 2014 2032 2056 2072 2076 2072 2058 2037 2016 1999 1966 1929 1915 1927 1964 1986 1989 1980 1970 1960 1968 1992 2012 2035 2052 2054 2044 2026 2011 2003 1986 1939 1899 1888 1884 1881 1862 1845 1842 1848 1862 1880 1900 1917 1925 1932 1934 1931 1927 1921 1913 1907 1901 1877 1844 1806 1775 1738 1703 1704 1744 1786 1808 1820 1828 1835 1829 1800 1791 1794 1826 1864 1898 1901 1903 1903 1903 1902 1901 1901 1900 1889 1880 1886 1898 1899 1865 1816 1778 1738 1700 1698
9999 1892 1898 1890 1874 1854 1833 1811 1788 1759 1731 1704 1683 1685 1714 1764 1805 1825 1847 1858 1852 1835 1817 1797 1707 1686 1687 1703 1714 1718 1719 1711 1698 1699 1733 1781 1811 1835 1860 1886 1896 1889 1856 1835 1815 1794 1755 1734 1756 1796 1829 1854 1860 1857 1851 1837 1831 1819 1828 1860 1902 1976 1982 1903 1899 1906 1916 1922 1919 1916 1912 1907 1901 1876 1826 1826 1868 1904 1921 1937 1948 1954 1956 1954 1954 1947 1937 1953 1988 1975 1943 1908 1874 1839 1802 1795 1805 1822 1832 1841 1858 1877 1892 1899 1949 1995 1975 1914 1887 1880 1898 1941 1988 2011 2026 2043 2058 2071 2060 2045 2028 2012 1995 1962 1926 1911 1920 1955 1964 1954 1947 1940 1950 1973 1999 2015 2034 2048 2050 2046 2035 2020 2010 2003 1978 1929 1896 1885 1873 1854 1844 1848 1868 1888 1904 1922 1938 1948 1956 1955 1950 1944 1936 1928 1921 1913 1903 1872 1831 1791 1751 1699 1719 1780 1814 1837 1853 1864 1869 1858 1820 1796 1799 1845 1889 1901 1904 1905 1905 1904 1903 1902 1901 1900 1888 1880 1894 1910 1906 1881 1835 1793 1750 1708 1698
9999 1888 1896 1888 1870 1850 1829 1810 1787 1760 1730 1702 1676 1674 1699 1750 1798 1815 1832 1849 1851 1838 1814 1788 1709 1681 1674 1691 1701 1704 1705 1701 1689 1699 1740 1788 1814 1839 1866 1886 1894 1881 1860 1840 1820 1801 1761 1728 1738 1782 1811 1822 1816 1809 1799 1799 1806 1818 1840 1883 1918 1986 1978 1907 1890 1895 1901 1904 1905 1903 1902 1901 1898 1859 1813 1813 1844 1889 1910 1924 1932 1936 1935 1930 1923 1914 1902 1937 1988 1980 1939 1897 1868 1835 1802 1785 1797 1808 1814 1825 1844 1866 1886 1900 1966 1993 1953 1898 1874 1872 1897 1937 1979 2007 2022 2039 2054 2065 2054 2038 2022 2006 1985 1956 1923 1906 1918 1940 1936 1925 1922 1930 1961 1994 2003 2013 2028 2042 2046 2042 2034 2025 2015 2006 1985 1943 1904 1888 1869 1851 1844 1858 1881 1900 1928 1948 1961 1972 1978 1976 1968 1959 1950 1942 1933 1922 1910 1893 1851 1806 1745 1700 1733 1800 1831 1861 1884 1897 1901 1886 1846 1820 1827 1879 1901 1904 1906 1906 1904 1903 1902 1901 1900 1898 1883 1881 1897 1914 1908 1882 1844 1808 1773 1742 1716
9999 1887 1896 1887 1868 1847 1825 1806 1783 1757 1730 1703 1674 1662 1688 1748 1802 1808 1827 1843 1845 1835 1814 1790 1710 1678 1663 1672 1694 1700 1695 1680 1680 1699 1750 1800 1818 1843 1869 1888 1893 1889 1873 1848 1822 1802 1764 1725 1727 1761 1780 1788 1779 1774 1781 1798 1814 1848 1883 1909 1943 1985 1978 1920 1893 1895 1887 1868 1858 1894 1894 1884 1862 1832 1806 1817 1850 1879 1899 1909 1915 1916 1914 1906 1899 1896 1898 1928 1978 1963 1913 1882 1854 1826 1798 1776 1778 1799 1798 1813 1834 1859 1885 1913 1974 1987 1928 1889 1863 1863 1891 1927 1970 2004 2021 2040 2053 2057 2046 2033 2018 2004 1978 1945 1918 1901 1914 1922 1915 1913 1918 1933 1968 2001 2009 2017 2028 2038 2042 2040 2033 2025 2016 2005 1985 1953 1919 1893 1870 1849 1846 1863 1889 1915 1945 1972 1989 1997 2000 1993 1983 1973 1963 1953 1941 1928 1914 1900 1864 1818 1762 1703 1737 1802 1842 1875 1900 1902 1903 1900 1881 1868 1872 1901 1905 1908 1907 1903 1902 1901 1901 1901 1900 1893 1881 1881 1895 1900 1897 1878 1850 1818 1787 1759 1734
9999 1881 1897 1887 1867 1845 1823 1804 1785 1758 1731 1704 1670 1652 1679 1792 1873 1801 1816 1830 1838 1828 1810 1780 1717 1681 1656 1655 1670 1672 1667 1660 1678 1710 1765 1807 1828 1851 1874 1889 1891 1886 1872 1848 1824 1803 1766 1725 1714 1722 1736 1746 1745 1758 1786 1812 1845 1876 1905 1930 1962 1989 1971 1929 1897 1879 1846 1814 1799 1807 1833 1842 1825 1806 1806 1824 1846 1865 1879 1889 1895 1894 1889 1894 1896 1890 1898 1937 1967 1943 1898 1877 1849 1819 1794 1768 1765 1784 1796 1803 1830 1860 1889 1931 1984 1978 1915 1880 1852 1858 1888 1924 1970 2004 2019 2035 2048 2050 2041 2025 2011 1998 1970 1938 1910 1896 1907 1913 1919 1927 1940 1957 1983 2003 2013 2019 2029 2035 2038 2036 2030 2021 2013 2002 1980 1950 1921 1893 1867 1850 1853 1874 1897 1929 1962 1992 2002 2005 2009 2004 1997 1984 1973 1960 1946 1931 1916 1902 1861 1813 1753 1704 1741 1805 1847 1887 1902 1905 1905 1901 1895 1892 1900 1904 1908 1908 1905 1901 1899 1899 1900 1900 1902 1889 1879 1878 1889 1889 1883 1865 1844 1818 1792 1766 1742
9999 1877 1895 1886 1866 1844 1821 1800 1779 1755 1730 1705 1670 1645 1667 1716 1765 1789 1808 1821 1831 1820 1806 1775 1725 1686 1653 1639 1635 1638 1641 1652 1687 1727 1777 1811 1836 1862 1880 1890 1889 1881 1867 1848 1823 1803 1770 1727 1708 1707 1709 1717 1734 1769 1805 1835 1866 1898 1921 1947 1969 1985 1964 1929 1896 1875 1851 1828 1805 1793 1795 1798 1798 1797 1804 1817 1831 1845 1855 1862 1860 1853 1845 1864 1888 1897 1908 1943 1948 1914 1897 1881 1851 1821 1793 1765 1753 1762 1781 1802 1831 1862 1893 1939 1983 1964 1909 1874 1845 1851 1886 1922 1962 2001 2015 2030 2041 2038 2028 2015 2002 1982 1955 1926 1899 1899 1905 1918 1932 1947 1962 1979 1996 2005 2014 2022 2028 2031 2033 2030 2023 2014 2006 1998 1976 1949 1920 1896 1870 1853 1857 1883 1909 1949 1985 2001 2006 2010 2012 2008 2002 1993 1980 1965 1949 1934 1919 1903 1861 1810 1747 1707 1753 1812 1857 1900 1904 1908 1907 1903 1899 1894 1901 1907 1910 1908 1903 1896 1879 1872 1880 1887 1891 1886 1878 1878 1885 1878 1868 1849 1833 1810 1787 1765 1744
9999 1872 1890 1883 1863 1840 1816 1794 1771 1747 1724 1701 1662 1637 1659 1697 1736 1773 1803 1814 1822 1817 1805 1776 1732 1691 1654 1631 1624 1626 1635 1659 1691 1730 1773 1808 1835 1864 1882 1889 1885 1870 1855 1838 1820 1803 1777 1739 1708 1703 1705 1713 1741 1789 1821 1851 1881 1907 1928 1953 1976 1979 1965 1931 1901 1878 1854 1830 1805 1788 1782 1783 1786 1794 1800 1806 1814 1823 1830 1834 1824 1811 1806 1831 1869 1897 1917 1931 1920 1893 1890 1897 1871 1832 1794 1763 1745 1753 1781 1808 1838 1868 1898 1945 1980 1962 1909 1873 1839 1844 1883 1918 1956 1994 2011 2025 2031 2024 2013 2003 1986 1965 1940 1913 1894 1895 1907 1923 1939 1955 1970 1984 1997 2005 2013 2018 2023 2024 2025 2022 2015 2007 2000 1992 1974 1949 1924 1900 1877 1856 1859 1883 1913 1963 2000 2005 2010 2013 2012 2009 2004 1999 1983 1968 1951 1934 1917 1901 1857 1811 1753 1709 1751 1810 1856 1900 1904 1909 1910 1905 1901 1900 1905 1910 1911 1907 1901 1880 1852 1834 1838 1861 1879 1883 1879 1879 1880 1867 1854 1836 1819 1801 1781 1760 1740
9999 1866 1885 1878 1856 1830 1806 1785 1765 1744 1722 1700 1660 1631 1645 1689 1725 1762 1791 1803 1809 1810 1802 1777 1733 1693 1662 1630 1617 1622 1645 1676 1701 1733 1766 1802 1828 1858 1881 1884 1877 1859 1840 1825 1811 1798 1778 1749 1714 1699 1705 1716 1761 1803 1835 1868 1896 1915 1935 1957 1975 1973 1954 1927 1905 1882 1857 1832 1807 1787 1774 1772 1779 1794 1800 1801 1804 1806 1810 1808 1798 1798 1799 1832 1876 1900 1908 1909 1892 1860 1863 1897 1893 1849 1793 1756 1738 1752 1785 1813 1843 1874 1904 1949 1977 1958 1909 1873 1834 1835 1872 1909 1947 1986 2007 2017 2018 2010 2001 1987 1971 1952 1929 1904 1881 1894 1911 1928 1945 1960 1975 1987 1997 2000 2005 2010 2013 2014 2014 2012 2007 2001 1995 1986 1971 1950 1927 1904 1884 1862 1860 1881 1914 1977 2002 2007 2012 2015 2014 2011 2005 2000 1986 1969 1951 1934 1917 1900 1856 1812 1752 1713 1763 1817 1859 1899 1905 1910 1912 1911 1907 1906 1909 1912 1911 1905 1898 1864 1827 1805 1809 1834 1859 1878 1879 1878 1874 1857 1839 1822 1805 1787 1769 1750 1731
9999 1859 1881 1872 1846 1817 1792 1771 1752 1736 1718 1697 1659 1625 1637 1679 1714 1744 1766 1785 1797 1801 1794 1767 1730 1694 1662 1628 1613 1619 1650 1683 1709 1738 1767 1798 1827 1861 1880 1881 1859 1843 1826 1813 1802 1791 1770 1749 1721 1701 1705 1725 1771 1812 1846 1880 1906 1924 1945 1965 1972 1966 1950 1927 1908 1888 1863 1838 1813 1792 1772 1765 1775 1796 1800 1800 1800 1800 1798 1790 1790 1797 1805 1832 1866 1887 1891 1880 1848 1816 1820 1872 1893 1851 1793 1750 1731 1758 1795 1820 1846 1876 1906 1950 1973 1954 1909 1872 1831 1827 1860 1900 1939 1977 2002 2008 2006 1999 1986 1971 1956 1939 1921 1900 1870 1896 1917 1935 1953 1969 1982 1990 1993 1993 1994 2000 2003 2004 2004 2003 1999 1995 1990 1983 1972 1954 1934 1913 1894 1870 1862 1881 1913 1979 2003 2008 2014 2016 2015 2012 2006 2001 1990 1973 1955 1936 1918 1900 1857 1813 1754 1716 1766 1818 1857 1895 1904 1910 1913 1914 1914 1914 1914 1913 1910 1904 1893 1856 1820 1797 1796 1812 1838 1866 1875 1874 1865 1847 1827 1812 1793 1771 1753 1735 1717
9999 1851 1875 1869 1835 1803 1776 1744 1734 1718 1704 1682 1643 1620 1626 1664 1699 1725 1748 1768 1786 1800 1788 1763 1727 1694 1660 1622 1607 1618 1651 1686 1713 1741 1769 1798 1823 1855 1877 1873 1853 1822 1806 1801 1801 1788 1768 1743 1721 1702 1702 1729 1775 1813 1847 1881 1906 1925 1947 1963 1967 1962 1947 1926 1908 1889 1864 1839 1814 1791 1766 1756 1771 1796 1800 1800 1793 1789 1780 1782 1793 1802 1812 1826 1844 1857 1860 1848 1825 1799 1799 1841 1889 1839 1786 1740 1726 1755 1797 1824 1850 1877 1905 1946 1968 1951 1910 1874 1830 1819 1850 1892 1928 1964 1992 2003 1995 1986 1973 1958 1942 1926 1908 1880 1862 1900 1924 1947 1964 1978 1987 1988 1984 1979 1977 1980 1984 1988 1990 1993 1992 1986 1982 1979 1977 1965 1949 1929 1903 1878 1865 1879 1911 1977 2003 2009 2014 2016 2016 2011 2006 2002 1991 1973 1954 1937 1919 1901 1859 1814 1759 1721 1767 1815 1852 1886 1902 1907 1911 1914 1915 1916 1915 1914 1909 1903 1888 1855 1820 1787 1768 1799 1821 1851 1865 1865 1856 1838 1817 1799 1779 1758 1737 1719 1701
9999 1840 1866 1864 1824 1797 1769 1726 1699 1699 1685 1663 1632 1615 1620 1652 1687 1713 1734 1756 1783 1796 1783 1757 1728 1695 1657 1617 1603 1616 1654 1690 1717 1745 1773 1797 1822 1851 1873 1867 1834 1810 1800 1799 1798 1783 1764 1742 1719 1701 1698 1718 1761 1805 1841 1877 1905 1923 1943 1957 1962 1959 1946 1926 1908 1888 1862 1837 1811 1786 1758 1747 1752 1770 1774 1774 1768 1770 1778 1792 1802 1811 1821 1828 1829 1832 1829 1819 1799 1797 1800 1857 1882 1825 1778 1731 1721 1755 1799 1824 1851 1878 1904 1940 1963 1950 1911 1875 1830 1814 1837 1884 1918 1952 1979 1993 1985 1975 1962 1948 1931 1915 1896 1856 1864 1904 1931 1960 1975 1984 1986 1981 1971 1962 1957 1958 1957 1958 1966 1978 1984 1980 1980 1981 1985 1983 1972 1952 1920 1893 1871 1871 1897 1979 2003 2009 2014 2017 2016 2011 2005 2001 1987 1969 1950 1931 1912 1889 1850 1810 1759 1725 1769 1811 1842 1875 1900 1903 1906 1909 1911 1916 1916 1914 1907 1901 1879 1848 1816 1778 1745 1778 1810 1833 1851 1852 1838 1817 1800 1779 1759 1740 1721 1702 1670
9999 1813 1848 1864 1833 1801 1779 1738 1708 1694 1678 1655 1631 1612 1612 1633 1670 1700 1725 1757 1787 1794 1778 1752 1723 1693 1653 1611 1601 1625 1662 1695 1722 1752 1781 1798 1818 1850 1871 1869 1839 1808 1800 1800 1793 1777 1758 1738 1717 1699 1692 1698 1740 1794 1836 1879 1905 1920 1938 1952 1956 1953 1942 1924 1908 1888 1858 1830 1803 1777 1749 1738 1740 1746 1752 1758 1768 1783 1797 1805 1812 1822 1829 1829 1826 1817 1811 1800 1785 1787 1811 1869 1870 1813 1768 1722 1719 1762 1801 1821 1844 1868 1893 1922 1956 1950 1911 1877 1830 1810 1827 1875 1910 1941 1966 1985 1978 1966 1952 1938 1924 1907 1873 1842 1873 1908 1934 1966 1979 1983 1980 1969 1955 1944 1937 1936 1928 1925 1938 1960 1976 1981 1982 1988 1994 1994 1995 1975 1944 1910 1886 1872 1892 1943 2000 2007 2015 2018 2014 2008 2003 1996 1979 1962 1945 1928 1909 1881 1843 1804 1762 1730 1752 1797 1823 1851 1876 1894 1900 1901 1903 1911 1916 1915 1907 1900 1869 1839 1809 1766 1727 1759 1804 1823 1836 1830 1815 1801 1779 1758 1738 1719 1700 1670 1638
9999 1791 1819 1851 1851 1825 1801 1775 1744 1714 1693 1670 1647 1620 1607 1615 1651 1692 1728 1767 1793 1795 1779 1750 1717 1684 1636 1601 1604 1637 1675 1705 1738 1770 1793 1800 1811 1843 1866 1869 1850 1825 1807 1798 1789 1774 1755 1736 1716 1698 1687 1692 1724 1790 1838 1882 1906 1920 1936 1947 1951 1948 1936 1920 1906 1887 1856 1825 1794 1760 1734 1735 1743 1756 1770 1782 1795 1802 1809 1819 1826 1829 1829 1824 1817 1808 1800 1781 1771 1789 1819 1868 1856 1804 1760 1716 1715 1760 1800 1810 1827 1849 1874 1913 1947 1950 1919 1887 1838 1807 1818 1864 1902 1926 1953 1976 1973 1961 1944 1928 1915 1900 1850 1839 1891 1916 1940 1963 1976 1976 1968 1954 1938 1925 1918 1913 1902 1903 1920 1946 1970 1983 1990 1996 2000 2000 1999 1999 1970 1938 1898 1880 1886 1919 1976 2004 2014 2019 2014 2004 1995 1976 1964 1951 1935 1919 1903 1873 1839 1805 1763 1736 1754 1784 1799 1822 1849 1882 1897 1900 1901 1910 1916 1913 1905 1895 1866 1835 1804 1754 1715 1743 1792 1808 1816 1810 1799 1777 1757 1736 1715 1695 1665 1636 1605
9999 1776 1796 1821 1843 1843 1827 1806 1783 1753 1723 1697 1674 1640 1608 1606 1636 1682 1726 1773 1804 1797 1776 1740 1707 1667 1619 1599 1608 1643 1680 1718 1757 1786 1802 1800 1803 1829 1856 1866 1860 1844 1821 1801 1790 1776 1756 1739 1718 1697 1679 1684 1710 1779 1829 1871 1903 1916 1931 1942 1944 1941 1928 1913 1902 1876 1847 1819 1789 1747 1726 1740 1766 1787 1799 1803 1807 1814 1821 1828 1829 1827 1821 1811 1805 1799 1783 1761 1765 1796 1835 1864 1842 1797 1751 1710 1714 1761 1800 1800 1810 1812 1857 1903 1932 1945 1920 1888 1840 1807 1809 1845 1888 1914 1942 1966 1966 1956 1939 1920 1905 1874 1829 1844 1899 1922 1946 1965 1964 1961 1951 1936 1921 1908 1900 1894 1899 1898 1914 1939 1967 1987 1996 2001 2003 2005 2005 2004 2002 1985 1925 1888 1884 1901 1952 2000 2011 2020 2014 2001 1969 1944 1941 1934 1922 1908 1885 1856 1825 1794 1764 1743 1753 1768 1786 1803 1837 1875 1899 1900 1905 1913 1915 1910 1902 1886 1861 1834 1805 1755 1708 1714 1758 1789 1792 1786 1771 1751 1731 1713 1690 1659 1630 1601 1583
9999 1764 1777 1793 1809 1820 1829 1823 1807 1788 1757 1725 1696 1663 1620 1602 1615 1661 1704 1760 1800 1799 1766 1733 1702 1654 1604 1599 1617 1653 1689 1732 1779 1803 1801 1800 1799 1816 1843 1859 1861 1854 1836 1816 1800 1781 1759 1737 1712 1692 1671 1675 1698 1763 1824 1868 1903 1915 1928 1936 1938 1934 1923 1911 1900 1869 1838 1808 1772 1730 1722 1751 1790 1802 1806 1810 1816 1823 1829 1828 1822 1813 1807 1800 1788 1776 1760 1749 1764 1794 1831 1856 1829 1791 1742 1706 1708 1746 1792 1799 1800 1800 1843 1888 1918 1939 1921 1890 1845 1807 1804 1836 1880 1907 1931 1953 1955 1947 1928 1909 1888 1842 1822 1863 1904 1928 1950 1954 1943 1932 1922 1911 1903 1885 1870 1882 1899 1916 1930 1951 1975 1993 2005 2011 2014 2015 2016 2013 2012 2005 1966 1897 1884 1895 1934 1984 2009 2022 2015 1997 1948 1912 1912 1911 1904 1884 1848 1830 1804 1787 1767 1750 1750 1764 1785 1805 1841 1880 1900 1903 1908 1913 1912 1905 1897 1877 1856 1832 1806 1763 1715 1703 1722 1744 1752 1753 1740 1722 1703 1684 1656 1625 1599 1588 1584
9999 1745 1754 1770 1781 1791 1804 1812 1811 1802 1782 1750 1717 1685 1642 1604 1601 1635 1683 1736 1788 1792 1755 1722 1690 1643 1598 1595 1625 1663 1702 1752 1800 1813 1799 1798 1797 1805 1824 1843 1855 1857 1849 1833 1810 1791 1760 1729 1699 1677 1662 1672 1696 1765 1823 1868 1903 1914 1924 1929 1930 1925 1916 1907 1891 1859 1828 1796 1748 1716 1727 1771 1801 1807 1813 1817 1821 1828 1829 1822 1810 1800 1796 1780 1761 1747 1739 1748 1775 1802 1836 1843 1808 1781 1738 1702 1708 1747 1783 1799 1803 1799 1837 1873 1905 1931 1920 1890 1849 1817 1805 1831 1869 1896 1917 1933 1937 1926 1911 1893 1856 1816 1827 1883 1911 1931 1941 1936 1925 1911 1900 1883 1857 1852 1878 1902 1917 1934 1952 1972 1991 2007 2018 2026 2029 2031 2029 2026 2024 2015 2002 1932 1891 1894 1925 1975 2006 2022 2018 1999 1944 1900 1899 1899 1881 1848 1813 1798 1792 1778 1767 1757 1755 1766 1786 1813 1853 1891 1902 1907 1910 1912 1909 1902 1888 1868 1847 1826 1804 1760 1716 1698 1695 1701 1715 1718 1709 1692 1666 1647 1619 1600 1598 1597 1607
9999 1716 1731 1743 1755 1765 1778 1789 1800 1800 1796 1769 1735 1704 1662 1621 1597 1609 1655 1703 1750 1764 1740 1705 1667 1624 1590 1597 1631 1669 1711 1775 1811 1803 1787 1778 1777 1790 1807 1821 1831 1844 1849 1842 1822 1802 1768 1729 1695 1666 1655 1674 1701 1768 1821 1865 1901 1910 1916 1918 1919 1913 1906 1900 1877 1844 1813 1777 1724 1712 1746 1791 1804 1811 1819 1824 1826 1828 1826 1818 1808 1798 1783 1762 1740 1728 1733 1755 1782 1808 1833 1825 1794 1764 1731 1701 1711 1749 1775 1789 1798 1799 1827 1865 1900 1922 1917 1892 1859 1825 1807 1815 1847 1875 1898 1909 1909 1904 1889 1855 1821 1812 1850 1900 1914 1924 1921 1912 1902 1889 1867 1843 1837 1870 1905 1920 1935 1952 1969 1986 2004 2020 2034 2043 2046 2046 2042 2039 2038 2026 2011 1998 1925 1900 1927 1965 1999 2019 2024 2003 1956 1902 1898 1886 1865 1836 1808 1796 1791 1785 1777 1768 1763 1770 1791 1818 1854 1890 1902 1907 1909 1909 1905 1900 1880 1861 1841 1820 1798 1759 1720 1693 1677 1672 1683 1681 1670 1644 1618 1608 1606 1603 1611 1635 1658
9999 1678 1705 1715 1726 1736 1745 1759 1774 1788 1800 1789 1762 1718 1682 1638 1602 1599 1621 1671 1712 1730 1718 1695 1655 1614 1582 1600 1638 1675 1718 1785 1802 1789 1763 1747 1745 1762 1785 1801 1806 1822 1842 1843 1829 1808 1780 1734 1694 1661 1649 1676 1713 1770 1819 1860 1895 1902 1905 1905 1904 1903 1895 1875 1854 1827 1795 1747 1709 1721 1770 1803 1812 1821 1828 1832 1832 1829 1823 1815 1807 1795 1771 1744 1727 1722 1732 1761 1789 1809 1823 1808 1781 1748 1719 1698 1714 1741 1767 1778 1788 1798 1824 1858 1889 1911 1915 1900 1866 1825 1801 1799 1824 1857 1880 1892 1891 1888 1874 1840 1810 1807 1852 1900 1909 1908 1900 1884 1868 1848 1833 1823 1854 1894 1915 1934 1952 1969 1986 2002 2017 2035 2048 2059 2060 2057 2054 2052 2051 2038 2022 2009 1985 1944 1944 1965 1994 2016 2027 2009 1970 1921 1894 1871 1845 1827 1815 1809 1800 1803 1795 1787 1774 1777 1795 1823 1857 1891 1902 1906 1907 1905 1901 1888 1868 1850 1833 1814 1792 1760 1726 1696 1667 1649 1640 1632 1620 1609 1605 1609 1630 1644 1664 1686 1703
9999 1600 1641 1670 1695 1702 1715 1730 1743 1760 1788 1796 1780 1741 1699 1659 1620 1598 1598 1637 1680 1698 1694 1671 1638 1602 1576 1606 1646 1686 1709 1756 1773 1755 1732 1712 1710 1720 1762 1795 1799 1813 1834 1839 1829 1811 1790 1740 1694 1656 1643 1671 1710 1764 1811 1844 1869 1889 1899 1898 1890 1886 1871 1851 1830 1808 1773 1723 1705 1740 1795 1815 1825 1834 1840 1842 1839 1833 1823 1813 1805 1794 1771 1745 1721 1716 1733 1765 1793 1808 1811 1795 1760 1728 1705 1696 1712 1736 1756 1767 1780 1796 1821 1851 1879 1902 1909 1900 1866 1829 1799 1796 1816 1843 1863 1876 1876 1873 1862 1837 1809 1804 1841 1885 1898 1890 1874 1858 1835 1817 1814 1830 1871 1905 1924 1942 1961 1981 2000 2016 2033 2050 2062 2068 2067 2064 2062 2061 2060 2050 2034 2020 2006 1985 1964 1962 1985 2007 2028 2016 1985 1939 1898 1858 1831 1823 1836 1848 1852 1848 1826 1802 1790 1785 1795 1820 1853 1885 1901 1903 1904 1901 1893 1870 1852 1835 1820 1804 1779 1751 1721 1691 1658 1636 1624 1620 1617 1622 1634 1653 1677 1695 1707 1716 1727
9999 1493 1503 1604 1634 1653 1680 1700 1712 1729 1760 1785 1788 1762 1718 1683 1641 1599 1588 1606 1643 1665 1666 1652 1623 1590 1575 1614 1657 1699 1704 1719 1730 1717 1697 1690 1698 1713 1756 1794 1801 1814 1831 1835 1827 1812 1792 1743 1694 1653 1637 1667 1708 1757 1801 1828 1856 1883 1896 1893 1880 1861 1845 1828 1808 1782 1739 1705 1706 1752 1801 1827 1842 1852 1857 1857 1850 1838 1825 1812 1803 1789 1761 1730 1712 1713 1731 1765 1793 1802 1801 1772 1736 1703 1697 1699 1712 1732 1745 1756 1769 1787 1815 1842 1869 1894 1902 1899 1863 1825 1795 1792 1809 1828 1845 1858 1864 1859 1851 1835 1810 1803 1823 1860 1865 1857 1843 1831 1815 1808 1811 1834 1882 1911 1931 1951 1969 1987 2007 2031 2056 2063 2073 2071 2068 2066 2065 2064 2063 2054 2046 2033 2017 2001 1979 1960 1971 2001 2026 2023 1993 1948 1904 1862 1833 1837 1868 1889 1899 1885 1854 1829 1803 1794 1798 1821 1850 1876 1897 1900 1900 1889 1868 1849 1829 1815 1802 1781 1757 1735 1707 1682 1652 1637 1637 1645 1657 1677 1688 1700 1711 1721 1731 1743 1752
9999 1481 1493 1498 1554 1609 1640 1663 1680 1699 1722 1752 1780 1776 1743 1703 1660 1615 1586 1589 1613 1631 1634 1629 1613 1581 1579 1621 1664 1700 1700 1703 1703 1683 1666 1685 1708 1740 1777 1800 1810 1821 1829 1829 1819 1805 1781 1740 1695 1651 1632 1663 1699 1745 1793 1822 1852 1882 1897 1893 1875 1849 1825 1807 1785 1759 1721 1701 1718 1772 1810 1835 1859 1870 1875 1873 1860 1845 1829 1814 1801 1780 1747 1719 1707 1709 1727 1759 1782 1788 1780 1748 1711 1695 1694 1700 1716 1729 1733 1735 1744 1774 1809 1836 1863 1887 1904 1892 1855 1813 1784 1787 1803 1816 1829 1841 1848 1845 1839 1828 1810 1802 1811 1831 1828 1821 1816 1811 1808 1812 1822 1850 1886 1912 1934 1955 1977 1997 2014 2043 2065 2074 2073 2066 2064 2062 2061 2062 2062 2063 2056 2044 2030 2015 1995 1967 1962 1994 2024 2026 1994 1949 1907 1872 1852 1872 1900 1906 1906 1900 1878 1850 1823 1797 1799 1830 1857 1878 1890 1885 1871 1854 1838 1822 1805 1786 1771 1749 1727 1705 1692 1670 1652 1656 1673 1687 1699 1711 1720 1727 1737 1747 1757 1770 1775
9999 1482 1489 1494 1499 1545 1601 1628 1648 1669 1691 1717 1752 1771 1758 1717 1675 1632 1595 1575 1597 1607 1611 1608 1602 1563 1587 1627 1670 1700 1700 1699 1660 1644 1674 1707 1736 1769 1800 1807 1816 1821 1822 1817 1807 1793 1763 1728 1689 1647 1627 1647 1687 1732 1791 1821 1856 1883 1896 1892 1873 1842 1814 1790 1763 1737 1713 1708 1738 1787 1822 1851 1875 1888 1893 1884 1868 1851 1833 1816 1800 1771 1738 1711 1705 1711 1726 1753 1768 1764 1753 1726 1697 1688 1694 1704 1720 1724 1713 1704 1723 1770 1808 1834 1860 1887 1900 1881 1843 1802 1774 1782 1800 1806 1815 1825 1831 1830 1825 1817 1807 1801 1800 1803 1798 1799 1800 1804 1814 1822 1839 1865 1887 1906 1925 1947 1969 1990 2010 2064 2073 2060 2060 2049 2050 2048 2049 2053 2054 2054 2057 2055 2047 2033 2010 1983 1959 1986 2019 2030 1996 1955 1916 1882 1880 1900 1922 1926 1923 1913 1893 1865 1832 1813 1815 1850 1866 1874 1871 1856 1835 1818 1805 1790 1769 1740 1728 1718 1706 1696 1683 1667 1664 1676 1695 1713 1726 1737 1748 1755 1763 1771 1783 1791 1790
9999 1486 1487 1490 1495 1499 1548 1594 1620 1642 1664 1688 1715 1749 1758 1726 1686 1647 1608 1573 1576 1600 1600 1600 1599 1556 1593 1627 1659 1681 1672 1648 1627 1661 1705 1730 1759 1790 1803 1809 1813 1811 1808 1803 1793 1767 1742 1713 1675 1633 1623 1645 1686 1735 1800 1824 1855 1883 1893 1889 1867 1836 1808 1776 1743 1716 1697 1703 1740 1795 1831 1866 1894 1903 1900 1889 1872 1853 1833 1814 1789 1753 1721 1705 1707 1716 1727 1747 1750 1739 1725 1705 1690 1684 1694 1706 1720 1716 1701 1700 1716 1759 1803 1831 1866 1891 1896 1868 1830 1796 1765 1772 1800 1800 1806 1812 1817 1817 1811 1806 1801 1796 1789 1785 1789 1797 1801 1809 1826 1834 1850 1865 1879 1892 1909 1930 1953 1972 1990 2014 2067 2028 2033 2026 2029 2029 2032 2034 2035 2037 2044 2051 2053 2051 2031 2000 1970 1987 2019 2032 1997 1953 1910 1893 1899 1931 1951 1954 1946 1927 1901 1880 1861 1855 1859 1866 1868 1862 1847 1829 1810 1798 1781 1762 1738 1723 1718 1726 1722 1707 1697 1680 1688 1701 1717 1736 1752 1763 1775 1784 1790 1796 1800 1800 1797
9999 1488 1487 1488 1491 1496 1508 1551 1586 1615 1637 1661 1690 1718 1746 1731 1696 1659 1624 1589 1560 1587 1600 1600 1587 1550 1591 1616 1636 1651 1628 1612 1641 1699 1718 1744 1773 1796 1802 1804 1803 1800 1786 1770 1754 1737 1715 1688 1650 1618 1628 1660 1696 1754 1804 1826 1857 1882 1889 1885 1862 1830 1804 1763 1724 1698 1690 1696 1750 1804 1839 1878 1902 1916 1903 1885 1866 1844 1824 1806 1770 1725 1706 1701 1709 1722 1730 1739 1733 1720 1707 1695 1681 1681 1696 1707 1717 1712 1700 1699 1720 1758 1796 1828 1870 1892 1888 1856 1815 1784 1755 1761 1794 1800 1800 1802 1805 1803 1796 1784 1777 1771 1773 1783 1794 1802 1812 1823 1831 1837 1844 1852 1863 1874 1892 1913 1930 1946 1959 1973 1984 1997 2006 2006 2008 2012 2014 2013 2013 2018 2025 2029 2032 2044 2049 2019 1998 1998 2024 2033 1998 1957 1925 1906 1930 1971 1985 1982 1965 1938 1907 1892 1882 1875 1873 1877 1876 1867 1850 1830 1812 1799 1798 1790 1774 1758 1759 1760 1745 1724 1704 1696 1707 1731 1746 1761 1778 1789 1801 1811 1810 1802 1800 1800 1794
9999 1493 1490 1489 1489 1493 1498 1516 1549 1580 1609 1635 1664 1698 1725 1728 1703 1669 1633 1596 1557 1566 1599 1600 1567 1547 1591 1602 1613 1620 1607 1618 1659 1703 1719 1741 1764 1781 1790 1787 1777 1762 1743 1730 1715 1698 1677 1636 1613 1618 1653 1689 1728 1786 1811 1834 1859 1878 1885 1879 1857 1829 1805 1759 1707 1687 1683 1696 1757 1810 1845 1880 1899 1902 1891 1872 1850 1828 1808 1774 1725 1699 1693 1695 1709 1724 1730 1731 1725 1712 1702 1688 1675 1680 1697 1707 1714 1708 1698 1695 1719 1755 1791 1825 1865 1886 1881 1845 1808 1777 1747 1750 1779 1793 1798 1796 1788 1772 1756 1754 1759 1770 1784 1798 1806 1816 1826 1830 1828 1829 1829 1834 1842 1854 1872 1888 1903 1914 1927 1939 1947 1958 1966 1975 1994 1992 1993 1994 1994 2000 2004 2004 2005 2015 2045 2046 2024 2006 2032 2031 1999 1971 1953 1943 1969 2000 2003 2000 1985 1949 1910 1892 1881 1875 1877 1885 1887 1881 1870 1853 1840 1831 1828 1820 1810 1803 1797 1785 1766 1739 1708 1708 1733 1761 1777 1786 1803 1819 1829 1836 1830 1808 1799 1800 1795
9999 1496 1496 1492 1490 1491 1494 1498 1512 1543 1574 1607 1637 1672 1705 1716 1703 1674 1637 1599 1557 1549 1589 1592 1550 1541 1579 1599 1599 1609 1629 1655 1686 1701 1712 1729 1746 1758 1754 1743 1731 1715 1698 1687 1671 1641 1616 1608 1624 1653 1689 1722 1766 1804 1818 1834 1853 1874 1878 1871 1850 1823 1802 1753 1700 1678 1673 1691 1767 1818 1849 1874 1888 1885 1873 1855 1834 1813 1788 1751 1703 1696 1699 1708 1718 1725 1729 1731 1728 1719 1703 1687 1671 1675 1695 1704 1707 1703 1693 1692 1717 1754 1789 1821 1859 1879 1871 1837 1803 1768 1738 1730 1742 1755 1757 1751 1743 1742 1752 1771 1786 1796 1807 1813 1822 1828 1829 1825 1815 1812 1812 1815 1817 1829 1837 1855 1860 1877 1893 1904 1910 1918 1918 1930 1937 1947 1961 1968 1968 1972 1976 1974 1983 1999 2013 2043 2045 2028 2041 2033 2000 1991 1984 1979 1999 2005 2010 2006 1995 1958 1919 1895 1881 1877 1881 1892 1896 1897 1893 1893 1882 1869 1857 1846 1837 1833 1821 1805 1782 1742 1707 1728 1766 1792 1810 1816 1833 1850 1858 1862 1855 1823 1799 1800 1799
9999 1515 1502 1497 1494 1492 1492 1494 1498 1503 1536 1570 1606 1640 1686 1701 1704 1672 1636 1601 1557 1540 1561 1570 1541 1531 1553 1594 1601 1610 1633 1662 1687 1700 1704 1715 1726 1727 1716 1704 1673 1649 1644 1627 1614 1603 1609 1641 1681 1701 1724 1756 1795 1813 1829 1848 1865 1871 1869 1852 1834 1816 1797 1738 1691 1665 1669 1695 1779 1822 1854 1879 1881 1866 1854 1836 1818 1797 1766 1732 1698 1689 1699 1711 1722 1728 1729 1731 1730 1723 1704 1686 1667 1672 1689 1700 1702 1698 1686 1688 1711 1746 1781 1812 1849 1871 1864 1830 1799 1766 1731 1721 1721 1725 1727 1732 1743 1765 1792 1815 1834 1848 1846 1827 1829 1828 1821 1811 1802 1797 1794 1795 1798 1800 1811 1812 1814 1826 1843 1851 1864 1878 1891 1899 1903 1915 1931 1943 1945 1944 1944 1940 1971 2008 2001 2028 2042 2043 2040 2022 2001 1999 1997 1998 2002 2009 2012 2008 2000 1963 1922 1896 1886 1883 1891 1899 1913 1925 1933 1941 1927 1897 1884 1872 1868 1858 1840 1820 1791 1729 1715 1748 1796 1820 1838 1854 1867 1882 1888 1888 1878 1844 1811 1800 1799
9999 1540 1527 1513 1499 1497 1495 1494 1495 1498 1499 1527 1567 1606 1649 1683 1686 1667 1632 1600 1555 1532 1533 1543 1521 1521 1539 1577 1599 1604 1626 1649 1670 1688 1699 1702 1702 1688 1649 1597 1596 1600 1605 1599 1603 1619 1658 1697 1715 1735 1759 1787 1806 1821 1838 1853 1864 1867 1865 1852 1832 1812 1785 1717 1679 1653 1666 1698 1791 1830 1865 1880 1874 1850 1834 1818 1801 1780 1752 1717 1692 1681 1699 1712 1723 1726 1727 1726 1722 1708 1701 1682 1663 1661 1675 1688 1693 1686 1677 1686 1705 1740 1775 1806 1838 1860 1846 1819 1792 1758 1724 1715 1717 1725 1739 1758 1782 1806 1854 1883 1894 1901 1879 1837 1824 1816 1806 1796 1779 1769 1772 1783 1796 1805 1813 1812 1811 1820 1828 1844 1863 1885 1899 1898 1888 1895 1907 1921 1925 1920 1911 1913 1996 2021 2002 2015 2033 2043 2037 2019 2000 2000 2000 2001 2006 2010 2014 2010 2003 1980 1931 1898 1892 1894 1900 1915 1931 1949 1965 1988 1991 1960 1923 1898 1893 1875 1854 1827 1790 1729 1743 1791 1820 1844 1864 1882 1899 1906 1911 1907 1898 1866 1832 1816 1819
9999 1566 1554 1541 1526 1510 1499 1498 1497 1497 1498 1499 1528 1575 1612 1640 1651 1640 1618 1596 1569 1538 1520 1522 1513 1513 1529 1569 1591 1600 1612 1628 1643 1656 1663 1662 1650 1615 1595 1583 1585 1598 1608 1620 1644 1674 1701 1720 1738 1759 1780 1801 1813 1828 1842 1851 1857 1859 1856 1843 1825 1808 1771 1700 1664 1645 1663 1697 1792 1830 1864 1873 1862 1835 1815 1800 1784 1764 1741 1718 1690 1676 1700 1711 1717 1718 1714 1709 1704 1701 1696 1676 1656 1655 1660 1670 1675 1672 1674 1686 1705 1737 1768 1796 1822 1847 1839 1809 1779 1736 1714 1719 1734 1755 1775 1794 1821 1866 1903 1914 1911 1900 1875 1837 1813 1803 1786 1763 1751 1758 1776 1799 1814 1830 1842 1849 1855 1866 1877 1891 1904 1914 1917 1909 1902 1892 1897 1905 1910 1902 1897 1901 2005 2026 2005 2007 2022 2037 2040 2025 2002 2000 1999 2004 2009 2014 2015 2011 2004 1991 1942 1901 1899 1903 1911 1922 1943 1965 1986 2002 2011 2005 1971 1930 1910 1891 1862 1826 1786 1743 1780 1816 1843 1867 1888 1905 1915 1922 1927 1921 1905 1889 1879 1871 1866
9999 1593 1583 1570 1554 1537 1521 1510 1500 1499 1499 1499 1511 1548 1581 1602 1612 1608 1596 1576 1554 1536 1521 1513 1511 1510 1519 1548 1564 1575 1589 1603 1614 1622 1624 1621 1599 1577 1566 1573 1595 1617 1642 1669 1691 1708 1723 1747 1762 1779 1794 1801 1814 1827 1839 1846 1848 1848 1845 1835 1821 1805 1759 1693 1652 1638 1666 1707 1791 1823 1851 1854 1835 1813 1798 1784 1770 1752 1730 1706 1676 1672 1700 1708 1709 1705 1702 1696 1688 1681 1671 1662 1648 1650 1655 1659 1663 1665 1670 1686 1704 1732 1759 1786 1812 1833 1829 1804 1768 1722 1709 1733 1764 1788 1805 1826 1864 1895 1908 1905 1894 1876 1853 1826 1803 1780 1752 1738 1749 1776 1797 1818 1839 1855 1872 1887 1900 1906 1912 1919 1930 1941 1941 1926 1911 1903 1899 1901 1900 1884 1875 1898 1978 1994 1995 2000 2013 2029 2039 2031 2008 2002 2005 2008 2013 2016 2017 2012 2005 2000 1957 1915 1904 1919 1923 1929 1941 1969 1996 2009 2016 2008 1987 1958 1930 1906 1880 1826 1783 1764 1804 1838 1867 1891 1908 1923 1936 1942 1940 1931 1916 1907 1900 1897 1894
9999 1617 1610 1597 1581 1565 1550 1538 1526 1517 1512 1500 1506 1525 1553 1570 1578 1572 1562 1541 1524 1513 1512 1515 1512 1511 1515 1521 1533 1543 1554 1569 1583 1589 1587 1582 1569 1552 1565 1592 1620 1648 1675 1701 1717 1732 1751 1771 1783 1793 1796 1797 1804 1816 1828 1834 1837 1837 1834 1828 1815 1801 1733 1677 1635 1636 1680 1726 1789 1818 1833 1829 1811 1796 1785 1772 1757 1741 1723 1700 1669 1660 1693 1700 1697 1686 1679 1666 1655 1649 1644 1645 1647 1651 1659 1663 1662 1662 1668 1688 1707 1733 1758 1783 1804 1820 1816 1797 1755 1712 1710 1745 1786 1808 1838 1860 1883 1894 1892 1881 1865 1847 1828 1806 1781 1743 1729 1738 1772 1801 1818 1838 1861 1879 1897 1907 1916 1924 1937 1952 1961 1964 1960 1945 1924 1908 1901 1900 1881 1851 1867 1903 1932 1955 1971 1984 1997 2013 2032 2037 2028 2019 2016 2018 2020 2020 2018 2013 2006 2000 1963 1921 1925 1936 1944 1939 1942 1958 1992 2008 2011 2001 1987 1963 1936 1913 1880 1820 1793 1796 1829 1864 1894 1913 1931 1947 1956 1956 1948 1937 1922 1912 1902 1890 1884
9999 1642 1636 1626 1610 1594 1578 1565 1553 1544 1528 1511 1510 1507 1516 1528 1542 1526 1519 1512 1510 1511 1516 1530 1526 1520 1520 1520 1521 1519 1523 1531 1542 1546 1549 1543 1541 1557 1590 1619 1650 1679 1703 1721 1741 1757 1775 1785 1793 1793 1789 1784 1791 1801 1812 1817 1819 1823 1823 1818 1807 1782 1716 1666 1625 1636 1684 1730 1779 1806 1810 1803 1794 1783 1772 1761 1748 1732 1714 1693 1656 1655 1675 1685 1675 1658 1650 1640 1635 1638 1643 1649 1658 1667 1677 1679 1673 1663 1665 1686 1708 1731 1756 1779 1797 1804 1801 1781 1735 1706 1715 1761 1800 1834 1864 1877 1876 1874 1867 1851 1836 1817 1799 1776 1741 1720 1728 1761 1795 1817 1838 1858 1881 1901 1912 1923 1933 1942 1956 1969 1976 1974 1967 1953 1932 1913 1901 1885 1850 1836 1882 1911 1928 1945 1961 1975 1988 2000 2016 2031 2036 2031 2028 2028 2026 2022 2020 2014 2007 2000 1959 1922 1942 1961 1968 1959 1950 1950 1967 1984 1993 1981 1972 1956 1936 1914 1880 1811 1799 1823 1862 1898 1917 1939 1957 1968 1967 1959 1946 1931 1916 1906 1894 1875 1859
9999 1666 1664 1657 1643 1625 1607 1591 1579 1566 1545 1531 1524 1512 1504 1503 1509 1506 1507 1511 1525 1528 1535 1554 1554 1545 1546 1545 1550 1534 1518 1516 1518 1523 1530 1536 1551 1587 1617 1653 1684 1705 1723 1746 1762 1773 1781 1786 1790 1785 1773 1769 1775 1787 1797 1802 1806 1810 1811 1805 1800 1751 1694 1650 1618 1639 1687 1725 1770 1793 1793 1784 1777 1768 1758 1749 1738 1725 1707 1678 1644 1635 1646 1657 1649 1635 1630 1633 1640 1651 1667 1676 1683 1690 1696 1697 1689 1674 1663 1682 1706 1729 1751 1770 1785 1793 1781 1749 1712 1703 1723 1774 1810 1838 1858 1864 1849 1841 1832 1820 1807 1787 1762 1733 1713 1718 1756 1792 1812 1832 1854 1876 1898 1915 1930 1943 1951 1961 1973 1981 1980 1974 1962 1942 1919 1903 1883 1847 1820 1830 1890 1913 1928 1943 1957 1970 1982 1992 2000 2014 2026 2032 2031 2031 2029 2025 2022 2016 2008 2001 1965 1935 1959 1989 1992 1991 1982 1969 1958 1952 1950 1949 1944 1939 1927 1912 1882 1819 1810 1850 1896 1926 1946 1967 1978 1977 1967 1953 1934 1917 1905 1893 1877 1858 1839
9999 1685 1691 1690 1675 1660 1643 1622 1600 1585 1570 1555 1545 1527 1513 1508 1518 1521 1529 1540 1559 1566 1569 1581 1584 1581 1582 1582 1585 1570 1530 1513 1512 1521 1537 1560 1587 1612 1643 1679 1706 1724 1740 1753 1760 1767 1773 1774 1773 1764 1751 1751 1758 1770 1779 1784 1792 1797 1797 1787 1756 1709 1668 1622 1615 1653 1701 1736 1773 1785 1778 1765 1758 1752 1743 1734 1725 1715 1701 1672 1637 1625 1623 1631 1628 1624 1625 1648 1671 1684 1695 1700 1702 1705 1708 1705 1701 1682 1664 1682 1705 1724 1741 1757 1770 1773 1763 1735 1705 1706 1743 1787 1807 1821 1822 1823 1818 1812 1803 1790 1776 1751 1719 1708 1712 1743 1786 1810 1829 1848 1869 1891 1911 1932 1951 1962 1967 1976 1983 1981 1974 1966 1947 1928 1909 1884 1847 1815 1809 1839 1899 1914 1928 1941 1953 1965 1975 1984 1992 2000 2011 2021 2028 2030 2029 2026 2023 2018 2009 2001 1973 1968 1994 1996 1990 1987 1990 1996 1999 1999 1971 1955 1938 1927 1915 1903 1882 1855 1853 1887 1970 1979 1980 1985 1984 1974 1953 1932 1915 1904 1889 1872 1856 1839 1821
9999 1703 1716 1718 1709 1697 1677 1653 1631 1607 1590 1578 1568 1549 1536 1533 1550 1565 1574 1583 1592 1599 1601 1608 1613 1611 1605 1603 1608 1601 1556 1522 1517 1535 1563 1587 1611 1636 1662 1693 1712 1726 1735 1740 1736 1740 1746 1748 1737 1736 1729 1733 1742 1754 1761 1765 1769 1771 1767 1752 1718 1677 1630 1609 1628 1673 1712 1756 1782 1778 1759 1745 1738 1731 1726 1718 1710 1702 1687 1664 1632 1617 1617 1619 1621 1621 1623 1657 1690 1701 1705 1709 1712 1716 1719 1711 1701 1681 1664 1681 1703 1715 1728 1741 1753 1754 1741 1723 1705 1725 1764 1789 1800 1797 1790 1788 1787 1781 1768 1754 1741 1719 1702 1705 1734 1776 1805 1822 1841 1860 1881 1902 1924 1949 1968 1974 1978 1981 1977 1969 1959 1950 1931 1912 1896 1858 1819 1802 1820 1865 1902 1914 1925 1936 1947 1958 1967 1975 1983 1991 1999 2009 2019 2022 2025 2025 2024 2020 2013 2003 1987 1995 1997 1990 1988 1987 1987 1990 1997 1999 2000 1986 1962 1936 1914 1900 1894 1888 1890 1967 2004 2007 1996 1988 1977 1955 1928 1910 1898 1882 1867 1850 1834 1819 1802
9999 1722 1738 1747 1743 1733 1709 1686 1665 1640 1616 1598 1588 1578 1570 1571 1585 1598 1613 1623 1633 1643 1648 1650 1646 1638 1612 1609 1626 1621 1599 1544 1520 1538 1575 1608 1643 1671 1685 1702 1704 1708 1709 1709 1708 1710 1714 1718 1709 1705 1709 1715 1725 1737 1742 1744 1747 1746 1739 1723 1695 1645 1607 1612 1661 1701 1729 1763 1776 1766 1738 1726 1720 1712 1707 1701 1690 1679 1664 1642 1624 1614 1615 1620 1625 1623 1625 1656 1691 1703 1709 1716 1719 1722 1723 1713 1700 1678 1665 1681 1700 1707 1716 1726 1734 1735 1724 1713 1714 1739 1763 1780 1780 1771 1759 1754 1750 1744 1729 1718 1710 1702 1706 1725 1761 1802 1814 1831 1852 1870 1889 1909 1936 1964 1979 1981 1979 1974 1964 1952 1940 1931 1916 1898 1861 1823 1800 1807 1839 1875 1900 1910 1921 1931 1941 1950 1959 1967 1975 1982 1991 2001 2007 2012 2017 2019 2022 2022 2017 2007 2001 2001 2001 2000 1999 1994 1992 1993 1995 1998 1999 1993 1967 1939 1912 1899 1900 1899 1926 1986 2008 2002 1984 1968 1956 1927 1906 1885 1868 1855 1842 1827 1811 1794 1764
9999 1746 1761 1772 1777 1769 1747 1724 1699 1675 1652 1629 1604 1598 1596 1603 1621 1639 1657 1668 1678 1689 1691 1686 1676 1659 1612 1611 1651 1649 1617 1561 1524 1551 1600 1632 1663 1679 1676 1666 1655 1651 1626 1616 1614 1611 1616 1659 1658 1659 1678 1696 1710 1719 1722 1723 1724 1720 1712 1695 1666 1615 1603 1641 1692 1713 1736 1748 1749 1738 1719 1706 1702 1690 1680 1672 1657 1642 1632 1619 1614 1615 1620 1634 1644 1633 1631 1644 1669 1700 1706 1712 1719 1723 1722 1708 1695 1675 1666 1682 1700 1701 1707 1713 1718 1717 1710 1706 1715 1736 1758 1762 1755 1742 1729 1720 1714 1707 1699 1697 1699 1707 1729 1756 1783 1803 1817 1835 1855 1875 1894 1912 1939 1969 1981 1980 1974 1963 1949 1936 1924 1914 1903 1871 1830 1799 1799 1812 1838 1870 1900 1906 1916 1925 1934 1943 1951 1959 1966 1974 1983 1991 1999 2004 2008 2013 2015 2019 2020 2014 2010 2014 2019 2021 2019 2008 2001 2002 2002 2002 2001 1999 1969 1938 1907 1895 1895 1905 1954 1988 1998 1985 1961 1939 1926 1906 1878 1850 1836 1826 1815 1803 1785 1758 1726
9999 1758 1780 1796 1799 1800 1790 1762 1736 1708 1681 1656 1632 1624 1632 1643 1663 1680 1698 1711 1717 1723 1724 1714 1703 1675 1613 1616 1675 1678 1636 1575 1524 1568 1608 1631 1639 1638 1625 1605 1594 1587 1578 1567 1568 1568 1573 1584 1593 1616 1639 1666 1691 1701 1702 1701 1701 1690 1669 1653 1631 1601 1599 1658 1702 1708 1713 1715 1708 1701 1691 1676 1667 1651 1636 1629 1620 1614 1610 1609 1613 1621 1638 1658 1670 1657 1648 1645 1649 1674 1700 1705 1714 1724 1721 1704 1689 1669 1667 1685 1699 1700 1700 1703 1704 1702 1698 1699 1714 1735 1745 1740 1728 1714 1700 1696 1694 1692 1692 1693 1698 1716 1745 1774 1800 1802 1815 1831 1850 1869 1888 1903 1917 1940 1957 1960 1956 1942 1932 1922 1910 1901 1877 1846 1806 1789 1799 1821 1844 1867 1890 1902 1910 1919 1927 1935 1943 1950 1957 1965 1973 1979 1985 1996 2001 2004 2006 2009 2015 2015 2020 2035 2044 2049 2043 2028 2015 2015 2014 2011 2007 2001 1974 1938 1900 1890 1898 1940 1975 1988 1986 1967 1939 1916 1904 1879 1841 1814 1799 1795 1788 1772 1751 1728 1705
9999 1767 1797 1802 1805 1810 1809 1798 1771 1742 1710 1684 1665 1663 1671 1682 1703 1720 1735 1749 1753 1755 1750 1737 1718 1681 1616 1631 1693 1702 1669 1611 1548 1530 1590 1603 1599 1592 1586 1571 1554 1544 1539 1537 1538 1540 1544 1551 1568 1588 1614 1642 1659 1663 1659 1650 1644 1634 1611 1600 1603 1600 1604 1646 1672 1681 1678 1679 1671 1660 1649 1631 1620 1612 1606 1605 1606 1607 1610 1615 1627 1640 1662 1682 1694 1692 1689 1679 1656 1654 1674 1695 1708 1725 1728 1702 1686 1672 1668 1680 1692 1697 1700 1693 1688 1682 1685 1698 1714 1731 1731 1719 1704 1695 1687 1683 1682 1683 1684 1689 1697 1716 1744 1773 1800 1800 1810 1824 1841 1856 1874 1887 1897 1908 1913 1914 1918 1916 1907 1901 1893 1873 1849 1821 1790 1785 1805 1822 1841 1860 1878 1894 1904 1912 1919 1927 1933 1940 1948 1955 1962 1966 1971 1980 1986 1991 1994 2001 2005 2012 2026 2053 2071 2075 2066 2050 2034 2028 2028 2023 2016 1999 1970 1920 1898 1894 1929 1988 2001 1997 1985 1960 1930 1904 1886 1852 1815 1794 1777 1765 1752 1737 1720 1710 1707
9999 1781 1800 1810 1820 1828 1826 1817 1803 1779 1748 1712 1693 1694 1696 1713 1737 1758 1773 1785 1790 1786 1774 1754 1727 1692 1623 1657 1709 1719 1688 1639 1592 1535 1535 1554 1555 1552 1549 1538 1532 1533 1538 1546 1549 1549 1544 1543 1548 1573 1596 1616 1623 1624 1617 1601 1597 1595 1592 1590 1593 1598 1601 1614 1627 1635 1628 1632 1626 1614 1607 1603 1602 1603 1605 1611 1615 1625 1634 1636 1653 1665 1683 1701 1720 1722 1719 1706 1688 1665 1660 1676 1695 1718 1736 1704 1688 1673 1667 1671 1678 1675 1664 1660 1658 1666 1688 1706 1724 1724 1711 1698 1688 1680 1678 1679 1681 1683 1683 1685 1692 1703 1724 1751 1779 1799 1803 1813 1824 1832 1844 1854 1859 1871 1874 1877 1883 1883 1877 1871 1862 1845 1822 1795 1772 1793 1804 1819 1836 1854 1869 1881 1894 1903 1911 1917 1924 1931 1937 1944 1950 1953 1957 1962 1965 1967 1973 1985 2001 2011 2033 2068 2091 2093 2084 2068 2050 2040 2040 2035 2022 2003 1972 1942 1934 1929 2003 2009 2008 2005 2001 1968 1930 1897 1880 1848 1815 1794 1773 1750 1732 1717 1708 1710 1727
9999 1799 1815 1828 1841 1850 1847 1836 1824 1809 1785 1748 1711 1699 1704 1736 1766 1794 1809 1818 1819 1810 1791 1764 1731 1694 1630 1684 1728 1741 1706 1665 1622 1581 1534 1526 1527 1528 1528 1530 1538 1561 1579 1587 1589 1585 1574 1556 1546 1552 1574 1591 1592 1592 1592 1584 1581 1579 1579 1580 1583 1590 1594 1596 1598 1599 1600 1604 1602 1600 1602 1607 1614 1626 1634 1648 1652 1662 1672 1668 1681 1690 1698 1728 1749 1752 1744 1729 1709 1688 1669 1668 1683 1700 1741 1707 1689 1675 1668 1666 1660 1649 1641 1640 1663 1684 1702 1718 1718 1706 1696 1683 1676 1678 1686 1691 1693 1692 1689 1686 1687 1693 1699 1713 1734 1753 1772 1790 1799 1805 1811 1818 1818 1826 1831 1837 1837 1842 1840 1837 1829 1813 1794 1770 1767 1793 1803 1816 1831 1845 1857 1868 1879 1890 1901 1907 1914 1920 1927 1933 1936 1938 1941 1944 1944 1939 1950 1969 1992 2006 2031 2075 2099 2099 2093 2078 2061 2049 2046 2044 2027 2010 1992 1986 1988 2002 2013 2022 2021 2016 2010 1996 1951 1910 1895 1865 1835 1810 1794 1767 1738 1720 1713 1727 1757
9999 1813 1835 1850 1864 1872 1867 1857 1845 1831 1811 1780 1739 1716 1728 1760 1792 1817 1838 1849 1848 1833 1805 1772 1736 1696 1640 1697 1747 1767 1724 1681 1645 1614 1588 1561 1551 1548 1543 1547 1561 1587 1607 1613 1616 1611 1600 1587 1564 1550 1553 1561 1565 1568 1568 1567 1568 1570 1573 1576 1580 1583 1587 1591 1594 1598 1600 1611 1621 1621 1632 1646 1658 1670 1679 1688 1692 1695 1704 1696 1711 1735 1750 1763 1781 1781 1768 1753 1730 1703 1683 1672 1678 1695 1740 1719 1692 1681 1672 1671 1671 1664 1653 1655 1689 1702 1710 1711 1700 1689 1676 1674 1680 1692 1699 1700 1700 1699 1698 1695 1691 1690 1692 1695 1698 1703 1724 1744 1762 1776 1786 1790 1789 1793 1796 1799 1798 1802 1802 1801 1797 1785 1767 1756 1757 1782 1801 1811 1823 1833 1843 1853 1863 1873 1884 1894 1903 1909 1916 1920 1922 1922 1924 1926 1922 1916 1931 1955 1979 1996 2014 2048 2083 2092 2084 2073 2061 2050 2047 2047 2046 2014 1999 1998 2003 2015 2026 2036 2034 2029 2021 2009 1983 1944 1913 1882 1855 1836 1815 1793 1765 1734 1727 1746 1783
9999 1819 1849 1871 1886 1893 1889 1879 1868 1854 1833 1808 1776 1751 1760 1782 1813 1843 1866 1880 1876 1853 1819 1778 1735 1692 1653 1705 1761 1782 1735 1698 1672 1645 1621 1605 1595 1590 1579 1577 1590 1605 1624 1635 1638 1635 1626 1610 1589 1567 1559 1555 1556 1559 1562 1565 1570 1574 1579 1582 1585 1586 1590 1593 1598 1607 1623 1641 1655 1667 1680 1691 1698 1710 1722 1734 1743 1752 1767 1786 1790 1793 1807 1807 1816 1807 1793 1775 1746 1715 1693 1678 1680 1696 1748 1730 1696 1687 1681 1682 1689 1693 1685 1691 1700 1701 1702 1694 1680 1673 1677 1689 1699 1703 1704 1706 1708 1709 1707 1701 1700 1697 1695 1694 1695 1697 1699 1717 1735 1752 1762 1768 1769 1775 1782 1787 1788 1791 1790 1789 1784 1771 1752 1745 1749 1762 1788 1802 1810 1818 1828 1838 1844 1854 1864 1874 1884 1896 1904 1906 1907 1906 1907 1906 1901 1900 1918 1945 1976 1993 1995 1998 2023 2041 2037 2031 2031 2037 2041 2055 2058 2034 2000 2003 2019 2032 2042 2052 2049 2043 2033 2018 2004 1972 1936 1899 1877 1856 1833 1809 1779 1747 1751 1777 1809
9999 1818 1856 1887 1900 1900 1899 1902 1893 1878 1859 1834 1806 1783 1789 1799 1833 1865 1890 1900 1899 1870 1830 1786 1735 1689 1668 1713 1762 1787 1752 1725 1701 1677 1654 1638 1627 1621 1609 1606 1611 1626 1642 1657 1661 1660 1652 1636 1614 1597 1587 1576 1574 1573 1580 1583 1588 1590 1594 1595 1595 1595 1597 1601 1618 1636 1651 1669 1686 1699 1717 1734 1746 1763 1776 1788 1800 1808 1816 1825 1831 1834 1846 1850 1856 1840 1818 1788 1757 1724 1696 1683 1687 1704 1755 1754 1706 1694 1692 1695 1700 1702 1702 1699 1696 1690 1686 1674 1672 1682 1696 1705 1711 1714 1715 1717 1719 1718 1713 1704 1700 1702 1703 1699 1699 1699 1693 1702 1715 1729 1738 1742 1747 1757 1767 1774 1776 1779 1779 1776 1770 1752 1738 1739 1743 1749 1767 1785 1794 1803 1813 1821 1825 1834 1844 1853 1860 1870 1878 1879 1877 1884 1895 1893 1891 1897 1918 1955 1986 1991 1982 1978 1986 1995 2001 2005 2011 2014 2017 2039 2060 2061 2024 2018 2041 2053 2062 2068 2064 2057 2045 2030 2015 1995 1959 1925 1896 1872 1845 1816 1787 1764 1777 1802 1846
9999 1819 1861 1899 1900 1901 1906 1919 1921 1908 1889 1867 1838 1812 1801 1819 1857 1888 1905 1906 1902 1886 1843 1798 1743 1694 1679 1712 1772 1797 1779 1756 1731 1708 1689 1671 1657 1652 1640 1634 1637 1647 1663 1678 1684 1685 1681 1668 1661 1649 1626 1604 1599 1598 1603 1610 1609 1610 1619 1621 1617 1612 1620 1632 1648 1667 1682 1697 1722 1744 1759 1773 1791 1807 1818 1825 1833 1844 1852 1860 1867 1874 1883 1891 1889 1865 1827 1792 1757 1722 1694 1688 1696 1727 1768 1774 1734 1699 1698 1700 1702 1703 1701 1689 1675 1672 1671 1676 1690 1701 1710 1717 1724 1726 1727 1728 1729 1726 1716 1705 1700 1707 1714 1714 1712 1707 1703 1701 1704 1713 1719 1723 1730 1741 1751 1760 1762 1766 1766 1762 1752 1735 1734 1735 1739 1744 1751 1766 1776 1787 1797 1801 1806 1814 1823 1831 1835 1840 1844 1831 1838 1860 1882 1890 1890 1899 1929 1973 1991 1986 1962 1951 1957 1968 1974 1984 1990 1997 1999 2000 2032 2076 2082 2060 2063 2074 2084 2084 2080 2070 2057 2043 2028 2010 1983 1948 1916 1887 1857 1825 1796 1785 1797 1842 1886
9999 1815 1863 1900 1902 1906 1921 1945 1951 1943 1925 1904 1882 1855 1835 1843 1879 1910 1926 1925 1919 1903 1860 1815 1764 1700 1695 1723 1784 1800 1800 1786 1762 1739 1722 1703 1687 1683 1672 1665 1664 1671 1684 1698 1711 1717 1718 1711 1712 1709 1702 1692 1682 1673 1669 1665 1660 1660 1659 1658 1657 1651 1653 1664 1677 1696 1724 1743 1766 1788 1806 1814 1828 1838 1848 1857 1865 1878 1888 1896 1903 1909 1917 1916 1902 1865 1829 1793 1753 1710 1694 1697 1723 1757 1786 1792 1767 1728 1700 1700 1701 1700 1693 1682 1671 1672 1681 1695 1706 1715 1723 1730 1737 1739 1740 1740 1739 1732 1715 1703 1700 1713 1728 1731 1727 1720 1714 1708 1706 1708 1710 1713 1719 1727 1737 1746 1750 1752 1752 1748 1736 1731 1732 1733 1736 1741 1746 1751 1759 1768 1774 1780 1787 1794 1802 1807 1808 1809 1808 1800 1812 1837 1867 1890 1896 1913 1949 1978 1985 1969 1938 1923 1929 1940 1951 1960 1967 1978 1994 2000 2008 2047 2082 2091 2091 2095 2102 2100 2095 2084 2073 2059 2041 2021 1998 1965 1933 1904 1874 1836 1801 1799 1826 1885 1914
9999 1800 1855 1900 1903 1916 1942 1971 1983 1979 1966 1946 1924 1889 1871 1875 1898 1938 1954 1952 1940 1916 1874 1830 1781 1720 1699 1745 1799 1803 1806 1806 1792 1771 1756 1737 1724 1719 1703 1695 1693 1696 1708 1726 1746 1758 1762 1761 1762 1762 1759 1751 1747 1740 1734 1725 1716 1713 1701 1694 1693 1691 1687 1696 1717 1748 1783 1797 1812 1830 1846 1855 1866 1870 1879 1888 1897 1910 1922 1927 1941 1945 1947 1928 1899 1860 1820 1781 1739 1700 1698 1716 1758 1794 1808 1807 1800 1769 1730 1700 1699 1697 1684 1676 1672 1683 1695 1708 1719 1728 1736 1744 1750 1753 1753 1751 1747 1734 1713 1701 1701 1721 1745 1749 1746 1735 1726 1717 1711 1708 1708 1709 1712 1718 1725 1733 1739 1740 1740 1735 1730 1730 1731 1732 1734 1737 1740 1744 1749 1753 1757 1761 1766 1771 1776 1782 1786 1789 1795 1799 1815 1838 1864 1886 1901 1927 1960 1975 1968 1934 1907 1898 1904 1916 1929 1933 1940 1954 1977 1996 1997 2026 2055 2083 2102 2106 2111 2109 2104 2100 2091 2074 2054 2031 2007 1976 1947 1920 1891 1847 1812 1817 1859 1905 1933
9999 1775 1829 1878 1905 1926 1956 1984 2004 2006 2003 1990 1971 1927 1909 1912 1938 1972 1984 1980 1961 1927 1887 1842 1795 1735 1706 1766 1809 1823 1834 1836 1821 1805 1792 1777 1768 1758 1743 1732 1728 1725 1734 1752 1774 1795 1804 1806 1807 1808 1808 1802 1803 1800 1794 1794 1783 1774 1759 1743 1736 1729 1730 1753 1776 1801 1826 1843 1854 1872 1886 1896 1908 1911 1921 1936 1946 1948 1957 1963 1973 1973 1959 1923 1890 1848 1806 1763 1721 1701 1713 1747 1788 1816 1828 1826 1817 1801 1766 1733 1701 1695 1682 1674 1676 1691 1704 1719 1731 1741 1750 1757 1763 1766 1766 1762 1754 1733 1710 1699 1701 1732 1761 1767 1763 1749 1739 1727 1718 1711 1709 1709 1711 1715 1720 1725 1730 1732 1732 1729 1729 1730 1730 1730 1731 1732 1734 1737 1742 1746 1749 1751 1753 1756 1760 1765 1773 1783 1798 1800 1820 1844 1870 1894 1911 1937 1960 1964 1945 1913 1892 1879 1882 1895 1904 1908 1913 1931 1957 1982 2000 2020 2046 2070 2099 2108 2114 2115 2109 2106 2102 2089 2065 2039 2011 1983 1956 1930 1903 1858 1809 1829 1881 1917 1947
9999 1762 1816 1858 1896 1922 1953 1983 2000 2012 2029 2029 2013 1984 1964 1967 1996 2013 2014 2004 1983 1946 1905 1857 1807 1733 1703 1774 1822 1852 1871 1869 1856 1841 1828 1815 1808 1798 1783 1770 1766 1757 1761 1778 1799 1818 1830 1835 1837 1839 1838 1835 1836 1832 1830 1830 1823 1817 1808 1795 1780 1765 1776 1801 1827 1844 1864 1888 1899 1915 1936 1952 1964 1975 1998 2001 1996 1987 1988 1989 1985 1974 1948 1911 1875 1833 1790 1734 1704 1712 1746 1784 1812 1834 1850 1849 1837 1818 1797 1764 1731 1699 1689 1677 1680 1695 1711 1727 1742 1753 1763 1771 1777 1780 1779 1772 1758 1731 1708 1698 1704 1743 1775 1784 1773 1763 1751 1739 1727 1718 1715 1714 1715 1718 1721 1724 1727 1728 1728 1728 1728 1728 1727 1727 1727 1727 1729 1732 1736 1740 1743 1745 1747 1749 1753 1758 1771 1793 1799 1804 1824 1850 1877 1901 1918 1940 1951 1947 1923 1899 1880 1861 1862 1873 1885 1891 1897 1913 1942 1971 1994 2002 2022 2054 2089 2104 2113 2116 2114 2115 2110 2100 2076 2045 2012 1984 1959 1934 1909 1865 1809 1829 1896 1931 1963
9999 1736 1797 1837 1873 1907 1935 1967 1983 2002 2032 2057 2058 2034 2012 2008 2034 2048 2043 2026 2003 1965 1918 1868 1818 1753 1704 1770 1826 1873 1900 1900 1891 1877 1864 1851 1842 1831 1820 1808 1802 1790 1789 1802 1822 1840 1855 1863 1868 1870 1869 1869 1870 1866 1864 1863 1853 1847 1838 1827 1814 1802 1816 1840 1871 1890 1901 1929 1948 1965 1986 2005 2013 2019 2029 2024 1998 1995 2005 1990 1973 1949 1922 1894 1858 1816 1772 1716 1700 1729 1780 1812 1835 1858 1874 1874 1861 1840 1817 1790 1755 1721 1695 1680 1682 1697 1717 1736 1751 1764 1775 1785 1791 1793 1792 1782 1761 1732 1709 1700 1711 1753 1786 1798 1784 1776 1764 1750 1737 1728 1723 1722 1722 1723 1725 1726 1727 1727 1727 1727 1727 1726 1725 1724 1723 1724 1725 1727 1731 1736 1739 1741 1742 1744 1748 1755 1777 1795 1800 1807 1826 1851 1876 1901 1916 1932 1938 1927 1907 1886 1858 1842 1845 1859 1872 1887 1896 1914 1945 1977 1996 1999 2008 2041 2077 2100 2108 2114 2117 2119 2113 2102 2080 2043 2006 1979 1955 1931 1907 1857 1815 1857 1911 1946 1979
9999 1708 1767 1814 1849 1884 1913 1938 1962 1982 2003 2040 2075 2084 2070 2057 2074 2081 2066 2041 2016 1981 1926 1871 1820 1752 1710 1780 1841 1896 1900 1903 1906 1907 1899 1886 1875 1866 1856 1844 1836 1820 1817 1828 1847 1864 1878 1889 1897 1901 1901 1902 1904 1899 1897 1895 1883 1878 1869 1856 1842 1836 1853 1876 1904 1934 1946 1973 1994 2011 2027 2042 2050 2053 2064 2054 1995 1990 1999 1980 1958 1934 1910 1875 1839 1801 1748 1703 1713 1764 1805 1832 1859 1883 1897 1898 1884 1861 1832 1803 1770 1735 1701 1687 1684 1697 1720 1742 1761 1776 1788 1798 1807 1812 1808 1796 1772 1738 1712 1704 1716 1759 1793 1800 1795 1786 1774 1760 1747 1738 1733 1730 1729 1728 1728 1728 1728 1727 1727 1726 1726 1725 1724 1722 1721 1721 1721 1723 1728 1733 1736 1738 1739 1741 1744 1759 1781 1794 1800 1805 1822 1842 1867 1891 1907 1919 1921 1910 1896 1865 1834 1828 1839 1862 1880 1897 1916 1938 1965 1990 1998 2000 2010 2036 2066 2090 2105 2118 2121 2112 2104 2094 2068 2035 2001 1973 1944 1918 1894 1849 1824 1872 1921 1961 1997
9999 1700 1738 1785 1821 1855 1889 1918 1942 1963 1982 2002 2042 2082 2097 2094 2102 2103 2079 2054 2026 2002 1940 1878 1828 1768 1714 1786 1845 1899 1905 1914 1922 1927 1923 1916 1907 1901 1891 1879 1869 1854 1849 1857 1873 1891 1903 1915 1925 1929 1931 1934 1937 1933 1933 1929 1918 1913 1899 1885 1869 1869 1891 1916 1945 1971 1989 2016 2036 2049 2064 2079 2087 2088 2094 2076 2012 1994 1998 1971 1946 1921 1898 1859 1819 1778 1721 1702 1738 1792 1827 1852 1877 1902 1918 1917 1900 1872 1843 1815 1785 1750 1716 1693 1687 1697 1719 1745 1769 1789 1801 1812 1824 1833 1830 1816 1801 1775 1739 1712 1716 1753 1792 1804 1801 1791 1780 1767 1755 1747 1741 1737 1733 1732 1732 1733 1730 1728 1729 1727 1726 1725 1723 1721 1720 1719 1719 1721 1726 1731 1734 1736 1737 1739 1743 1763 1779 1789 1791 1794 1804 1822 1842 1864 1889 1903 1906 1900 1875 1839 1817 1820 1847 1877 1899 1923 1951 1976 1997 2003 2011 2014 2024 2045 2071 2092 2102 2123 2125 2106 2098 2085 2047 2012 1996 1965 1928 1899 1873 1841 1840 1885 1932 1978 2007
9999 1700 1712 1753 1792 1827 1863 1902 1924 1944 1963 1981 2000 2036 2074 2101 2115 2109 2092 2066 2034 2003 1950 1886 1836 1781 1721 1784 1847 1903 1917 1929 1941 1948 1948 1944 1939 1935 1925 1914 1901 1886 1881 1885 1896 1918 1933 1944 1953 1958 1959 1964 1970 1969 1969 1967 1964 1957 1944 1921 1900 1904 1931 1960 1988 2013 2031 2058 2077 2088 2101 2110 2114 2113 2109 2095 2052 2017 1994 1963 1934 1909 1876 1837 1798 1744 1704 1715 1769 1812 1848 1878 1899 1920 1939 1933 1907 1881 1853 1826 1801 1766 1726 1697 1691 1699 1725 1753 1778 1800 1813 1826 1838 1848 1848 1833 1815 1797 1763 1721 1713 1751 1791 1812 1814 1801 1790 1777 1765 1755 1749 1744 1741 1740 1740 1737 1731 1732 1733 1730 1727 1726 1724 1722 1720 1718 1718 1720 1725 1730 1733 1735 1736 1738 1746 1762 1771 1775 1779 1781 1786 1796 1810 1831 1854 1876 1886 1878 1856 1823 1808 1821 1862 1894 1919 1950 1981 2000 2002 2012 2027 2041 2048 2066 2084 2099 2122 2136 2125 2100 2098 2080 2043 2011 1995 1968 1929 1897 1869 1852 1860 1894 1951 2001 2015
9999 1700 1700 1724 1763 1797 1832 1871 1906 1925 1943 1961 1980 2001 2042 2087 2108 2105 2092 2062 2029 1998 1943 1887 1837 1786 1729 1784 1850 1906 1928 1946 1960 1970 1973 1974 1973 1968 1960 1951 1940 1919 1901 1903 1925 1946 1963 1973 1981 1986 1988 1994 2002 2004 2004 2005 2006 2001 1994 1974 1946 1945 1976 2004 2030 2054 2074 2100 2112 2122 2129 2140 2139 2129 2113 2095 2053 2009 1980 1952 1922 1893 1854 1815 1770 1714 1707 1751 1799 1832 1868 1902 1927 1953 1962 1943 1913 1887 1860 1834 1808 1772 1732 1699 1695 1707 1737 1765 1790 1807 1824 1842 1858 1863 1860 1844 1824 1806 1775 1728 1710 1737 1784 1811 1827 1819 1801 1789 1776 1765 1758 1753 1751 1750 1747 1739 1731 1738 1739 1735 1730 1728 1725 1723 1720 1719 1718 1721 1725 1730 1733 1735 1735 1737 1747 1754 1759 1762 1763 1764 1767 1777 1788 1798 1817 1833 1851 1851 1834 1813 1806 1834 1876 1906 1931 1957 1985 2000 2004 2018 2038 2059 2074 2089 2109 2131 2154 2153 2136 2113 2100 2088 2065 2038 2013 1991 1959 1923 1891 1868 1875 1901 1976 2010 2025
9999 1700 1700 1711 1747 1778 1799 1832 1875 1905 1923 1942 1961 1983 2007 2053 2081 2090 2076 2047 2020 1991 1940 1889 1839 1789 1738 1784 1846 1906 1934 1961 1979 1992 1997 2003 2005 2002 1995 1988 1980 1969 1947 1936 1956 1979 1994 2003 2010 2016 2018 2024 2031 2035 2035 2036 2037 2033 2028 2010 1989 1983 2014 2046 2073 2095 2109 2127 2141 2154 2163 2159 2147 2127 2105 2077 2035 1994 1963 1935 1907 1871 1832 1792 1736 1705 1730 1788 1825 1858 1888 1915 1946 1971 1973 1952 1915 1887 1861 1834 1808 1773 1734 1702 1699 1716 1749 1780 1802 1816 1835 1854 1867 1870 1866 1852 1830 1809 1783 1736 1711 1728 1775 1806 1831 1836 1818 1799 1788 1777 1770 1765 1763 1759 1751 1739 1734 1746 1747 1743 1736 1731 1728 1725 1723 1720 1720 1722 1726 1730 1733 1734 1735 1737 1741 1744 1745 1745 1746 1749 1752 1759 1769 1780 1789 1797 1812 1820 1814 1801 1806 1841 1880 1909 1932 1954 1976 1998 2006 2023 2045 2069 2090 2112 2161 2176 2172 2171 2159 2141 2122 2109 2093 2067 2042 2021 1992 1955 1909 1888 1890 1928 1997 2016 2033
9999 1700 1700 1705 1746 1780 1798 1799 1843 1890 1903 1922 1942 1963 1986 2014 2055 2073 2053 2025 2002 1969 1930 1883 1832 1783 1748 1792 1848 1906 1943 1975 1999 2011 2021 2028 2032 2031 2027 2023 2018 2012 1993 1977 1991 2009 2023 2032 2038 2045 2049 2056 2059 2065 2066 2067 2067 2068 2057 2037 2026 2025 2054 2087 2108 2121 2143 2160 2177 2178 2174 2159 2135 2111 2087 2054 2016 1981 1950 1920 1888 1848 1810 1765 1713 1713 1765 1811 1850 1887 1911 1932 1959 1979 1972 1949 1916 1889 1862 1835 1808 1777 1738 1703 1697 1719 1754 1790 1808 1824 1842 1859 1871 1875 1868 1854 1831 1809 1785 1739 1713 1725 1767 1802 1829 1845 1839 1818 1800 1788 1782 1776 1772 1764 1751 1739 1739 1755 1757 1752 1744 1736 1732 1729 1726 1723 1723 1725 1728 1731 1733 1734 1735 1735 1735 1735 1735 1735 1736 1739 1743 1748 1756 1769 1781 1789 1795 1796 1796 1796 1803 1833 1870 1901 1922 1942 1961 1981 2003 2020 2045 2071 2096 2135 2181 2181 2181 2180 2176 2166 2149 2132 2112 2094 2072 2047 2018 1981 1931 1899 1898 1943 2005 2023 2040
9999 1700 1700 1713 1755 1791 1799 1809 1846 1891 1898 1903 1919 1946 1977 2007 2038 2062 2042 2012 1982 1947 1912 1870 1820 1780 1763 1797 1852 1907 1955 1992 2015 2031 2043 2052 2059 2061 2059 2056 2051 2039 2017 2010 2020 2034 2050 2061 2067 2074 2081 2087 2088 2095 2097 2097 2098 2100 2085 2068 2063 2075 2102 2119 2133 2144 2163 2186 2190 2183 2162 2136 2112 2090 2059 2027 1995 1962 1931 1902 1863 1821 1784 1734 1709 1740 1794 1833 1872 1908 1936 1957 1975 1981 1964 1936 1910 1886 1859 1832 1805 1773 1733 1702 1700 1722 1756 1788 1809 1827 1846 1864 1877 1879 1867 1849 1829 1810 1787 1744 1717 1722 1759 1796 1822 1848 1855 1844 1818 1798 1792 1786 1778 1765 1750 1740 1747 1764 1767 1761 1754 1744 1738 1734 1731 1728 1727 1729 1731 1733 1734 1734 1735 1734 1734 1734 1733 1732 1732 1734 1736 1740 1748 1761 1773 1783 1787 1787 1786 1790 1797 1822 1854 1883 1907 1923 1941 1961 1984 2007 2030 2056 2083 2110 2148 2157 2162 2172 2175 2173 2167 2153 2132 2114 2101 2071 2033 1992 1946 1906 1897 1964 2012 2031 2048
9999 1700 1713 1750 1787 1816 1831 1842 1868 1895 1900 1900 1914 1940 1967 1994 2030 2054 2041 2004 1978 1941 1903 1859 1816 1792 1775 1797 1850 1906 1959 2004 2026 2046 2063 2076 2084 2090 2091 2089 2084 2067 2050 2047 2051 2062 2076 2089 2096 2103 2112 2119 2119 2125 2128 2126 2126 2125 2111 2098 2097 2112 2130 2147 2160 2168 2178 2193 2193 2172 2140 2110 2086 2057 2028 1997 1970 1941 1909 1874 1840 1796 1750 1714 1719 1767 1814 1854 1893 1930 1960 1983 1990 1984 1963 1935 1909 1881 1852 1825 1797 1765 1725 1701 1702 1723 1761 1793 1815 1835 1854 1872 1882 1881 1865 1845 1825 1807 1783 1746 1723 1717 1736 1780 1809 1839 1860 1861 1840 1817 1800 1793 1781 1764 1749 1743 1756 1773 1776 1771 1764 1754 1746 1740 1737 1734 1733 1733 1734 1733 1730 1733 1736 1735 1735 1734 1734 1733 1732 1732 1733 1735 1743 1755 1765 1774 1778 1778 1780 1784 1792 1803 1832 1856 1881 1903 1920 1940 1962 1984 2006 2031 2058 2085 2106 2118 2132 2146 2160 2167 2168 2163 2151 2135 2115 2099 2054 2003 1944 1905 1924 1985 2017 2040 2060
9999 1705 1747 1787 1820 1851 1873 1885 1891 1899 1900 1904 1924 1946 1969 1989 2023 2050 2023 1996 1971 1937 1904 1871 1840 1814 1790 1798 1848 1905 1954 2002 2028 2055 2078 2095 2108 2116 2120 2120 2113 2096 2084 2080 2080 2088 2103 2119 2131 2137 2145 2152 2153 2156 2158 2155 2153 2149 2137 2125 2128 2145 2160 2177 2188 2192 2192 2199 2182 2154 2117 2089 2053 2022 1994 1969 1943 1917 1880 1841 1808 1771 1721 1717 1739 1787 1833 1876 1916 1958 1988 2004 2004 1993 1966 1940 1911 1879 1845 1811 1786 1753 1717 1701 1706 1736 1773 1802 1825 1846 1865 1880 1888 1881 1864 1843 1824 1807 1783 1760 1742 1725 1725 1760 1800 1826 1857 1870 1865 1847 1822 1800 1780 1763 1750 1748 1766 1782 1785 1780 1774 1765 1755 1748 1744 1741 1738 1734 1729 1726 1727 1737 1740 1738 1737 1736 1735 1734 1733 1732 1732 1733 1739 1749 1759 1763 1767 1768 1773 1779 1788 1795 1801 1824 1850 1874 1896 1917 1939 1961 1982 2005 2032 2059 2076 2092 2105 2118 2132 2145 2155 2160 2156 2147 2129 2108 2071 2017 1956 1914 1945 1999 2023 2047 2070
9999 1729 1770 1811 1849 1882 1908 1924 1932 1934 1937 1943 1953 1971 1985 1997 2024 2049 2014 1997 1980 1950 1922 1894 1861 1826 1799 1799 1843 1904 1960 2007 2033 2058 2084 2109 2129 2141 2149 2149 2141 2128 2117 2103 2098 2115 2135 2152 2166 2174 2177 2185 2187 2188 2189 2183 2180 2175 2164 2154 2160 2179 2193 2209 2222 2220 2204 2194 2164 2130 2101 2065 2024 1992 1961 1936 1912 1877 1836 1801 1764 1725 1720 1751 1783 1802 1857 1906 1946 1987 2011 2024 2020 2000 1968 1933 1900 1866 1830 1797 1769 1735 1709 1701 1711 1745 1782 1811 1838 1862 1878 1891 1895 1883 1865 1846 1827 1808 1792 1787 1788 1748 1725 1740 1785 1814 1846 1870 1877 1870 1846 1817 1795 1766 1753 1755 1777 1791 1792 1789 1784 1775 1766 1758 1753 1748 1741 1735 1730 1729 1732 1745 1746 1744 1741 1739 1737 1736 1735 1734 1733 1733 1737 1744 1749 1754 1756 1760 1767 1774 1782 1788 1793 1799 1823 1845 1868 1894 1916 1938 1959 1982 2007 2032 2049 2065 2080 2095 2106 2116 2130 2142 2146 2146 2136 2117 2102 2043 1971 1929 1963 2008 2033 2057 2081
9999 1746 1786 1826 1869 1905 1931 1956 1976 1986 1986 1988 1986 1994 1999 2002 2037 2049 2012 1999 1992 1973 1947 1914 1881 1843 1807 1796 1843 1903 1960 2010 2039 2067 2092 2119 2146 2164 2176 2179 2170 2161 2152 2139 2133 2146 2169 2184 2199 2210 2211 2219 2222 2223 2222 2219 2216 2200 2191 2185 2188 2222 2246 2262 2258 2231 2201 2178 2147 2115 2081 2047 2007 1968 1930 1901 1866 1821 1787 1750 1724 1727 1768 1801 1828 1839 1868 1922 1974 2008 2033 2043 2027 2004 1970 1930 1893 1862 1830 1799 1770 1733 1706 1701 1718 1754 1788 1817 1849 1877 1898 1900 1900 1886 1869 1845 1820 1802 1799 1800 1800 1776 1733 1732 1769 1801 1827 1858 1880 1882 1866 1835 1806 1780 1757 1766 1788 1801 1799 1798 1793 1789 1784 1777 1771 1766 1757 1748 1741 1738 1742 1756 1755 1751 1748 1744 1742 1739 1737 1736 1734 1734 1736 1741 1742 1746 1748 1753 1760 1768 1775 1780 1786 1793 1798 1816 1840 1865 1892 1915 1937 1961 1985 2005 2023 2038 2053 2065 2077 2093 2107 2117 2123 2136 2134 2126 2116 2068 1980 1947 1978 2013 2041 2067 2091
9999 1756 1801 1838 1877 1915 1947 1978 2002 2015 2018 2017 2014 2008 2007 2018 2047 2059 2025 2018 2013 2000 1970 1936 1899 1861 1814 1799 1843 1894 1951 2005 2037 2070 2101 2132 2161 2185 2201 2204 2200 2195 2188 2180 2174 2179 2201 2217 2230 2244 2247 2254 2258 2259 2258 2262 2271 2272 2273 2289 2299 2285 2282 2280 2250 2207 2179 2153 2124 2098 2059 2023 1991 1955 1916 1871 1826 1785 1746 1727 1737 1778 1813 1854 1884 1885 1907 1948 2000 2028 2055 2057 2036 2005 1968 1925 1889 1859 1829 1799 1768 1729 1704 1704 1728 1767 1798 1832 1865 1895 1900 1900 1900 1892 1872 1848 1825 1804 1793 1799 1800 1788 1746 1731 1748 1785 1811 1844 1875 1887 1877 1841 1807 1778 1765 1789 1805 1814 1816 1816 1812 1808 1803 1797 1794 1787 1776 1766 1758 1752 1756 1767 1764 1759 1755 1751 1747 1743 1740 1738 1737 1736 1736 1737 1738 1740 1742 1748 1754 1760 1766 1772 1779 1786 1791 1796 1809 1834 1862 1890 1915 1938 1960 1979 1996 2011 2023 2032 2040 2049 2068 2090 2101 2105 2109 2110 2110 2079 1991 1971 1984 2012 2042 2071 2099
9999 1762 1807 1845 1882 1918 1955 1990 2010 2030 2043 2046 2044 2035 2031 2038 2058 2071 2047 2045 2033 2016 1994 1958 1917 1875 1820 1803 1833 1888 1941 1996 2031 2065 2099 2140 2180 2201 2218 2233 2240 2239 2233 2225 2214 2213 2230 2248 2261 2276 2283 2290 2295 2295 2296 2300 2307 2312 2302 2300 2300 2293 2263 2245 2209 2181 2154 2126 2099 2068 2033 1997 1969 1939 1902 1856 1809 1759 1731 1742 1777 1816 1859 1901 1941 1943 1951 1979 2010 2046 2070 2067 2034 2001 1961 1920 1885 1857 1829 1800 1768 1728 1705 1705 1732 1772 1805 1843 1879 1901 1904 1906 1906 1903 1884 1862 1831 1805 1797 1792 1799 1796 1762 1736 1748 1777 1801 1829 1864 1888 1889 1859 1815 1785 1772 1798 1816 1828 1835 1840 1836 1831 1822 1818 1810 1802 1794 1787 1780 1770 1771 1777 1772 1768 1763 1757 1752 1746 1742 1743 1741 1740 1737 1737 1738 1738 1740 1744 1749 1753 1758 1764 1772 1778 1784 1788 1794 1805 1833 1861 1889 1914 1935 1953 1969 1983 1992 1997 1998 2000 2010 2021 2032 2047 2065 2081 2086 2055 2012 1998 1998 2015 2046 2076 2098
9999 1767 1808 1845 1880 1912 1948 1983 2008 2035 2055 2066 2069 2065 2060 2061 2073 2085 2076 2067 2052 2032 2011 1981 1938 1892 1838 1807 1831 1887 1936 1985 2025 2064 2100 2140 2177 2203 2219 2235 2254 2269 2278 2280 2263 2254 2262 2279 2293 2305 2311 2317 2321 2320 2304 2300 2307 2311 2302 2300 2300 2270 2234 2204 2177 2151 2128 2100 2069 2037 2006 1977 1950 1921 1885 1836 1789 1742 1745 1783 1816 1862 1908 1953 1997 2000 1994 1998 2016 2057 2082 2073 2037 2001 1962 1922 1886 1857 1828 1799 1764 1721 1704 1711 1744 1782 1816 1855 1892 1910 1921 1926 1925 1915 1895 1868 1829 1805 1801 1800 1796 1800 1770 1741 1740 1765 1788 1804 1838 1882 1894 1874 1830 1797 1777 1795 1813 1832 1847 1857 1858 1855 1847 1834 1821 1811 1806 1803 1800 1789 1785 1785 1780 1775 1769 1760 1749 1745 1748 1749 1747 1746 1740 1739 1738 1738 1739 1741 1744 1747 1751 1757 1765 1771 1772 1779 1787 1794 1804 1831 1860 1888 1909 1927 1944 1957 1964 1968 1967 1967 1977 1989 1994 1997 2015 2033 2026 2020 2016 2008 2009 2027 2056 2085 2099
9999 1771 1803 1837 1868 1897 1930 1964 2001 2023 2046 2073 2084 2085 2084 2084 2089 2099 2096 2087 2069 2048 2024 2002 1956 1901 1852 1813 1831 1887 1932 1976 2018 2052 2085 2115 2150 2183 2196 2204 2220 2241 2267 2291 2293 2291 2292 2309 2333 2332 2333 2330 2323 2314 2300 2279 2268 2271 2272 2270 2252 2220 2191 2170 2144 2117 2095 2072 2039 2007 1982 1957 1930 1903 1856 1806 1760 1741 1778 1822 1868 1913 1963 2000 2001 1998 2000 1997 2019 2066 2089 2078 2037 1999 1961 1923 1887 1855 1824 1793 1757 1717 1705 1719 1758 1794 1832 1874 1910 1938 1952 1956 1947 1926 1900 1868 1823 1808 1806 1807 1805 1796 1769 1745 1742 1756 1780 1797 1825 1873 1896 1886 1850 1811 1789 1791 1806 1826 1848 1865 1869 1866 1857 1843 1830 1821 1816 1813 1809 1803 1797 1792 1786 1777 1763 1752 1748 1752 1758 1757 1755 1749 1745 1743 1742 1739 1738 1739 1740 1742 1746 1752 1758 1758 1762 1771 1778 1785 1793 1803 1832 1859 1881 1902 1919 1929 1935 1938 1935 1934 1951 1980 1990 1991 1998 2006 2015 2025 2032 2034 2034 2052 2076 2096 2099
9999 1774 1799 1827 1856 1882 1909 1946 1983 2009 2033 2068 2105 2106 2099 2094 2099 2110 2111 2101 2082 2058 2034 2009 1968 1913 1867 1821 1827 1871 1911 1956 1997 2027 2052 2083 2098 2123 2143 2163 2183 2197 2225 2258 2287 2299 2303 2331 2335 2328 2321 2310 2301 2286 2256 2220 2205 2215 2223 2215 2197 2180 2160 2137 2112 2087 2064 2042 2013 1984 1959 1934 1909 1868 1818 1774 1744 1770 1809 1857 1906 1964 2001 2006 2009 2012 2016 2020 2043 2084 2096 2074 2029 1992 1954 1916 1880 1846 1813 1782 1744 1711 1707 1730 1772 1806 1848 1889 1931 1969 1984 1981 1963 1937 1905 1860 1826 1815 1814 1820 1822 1802 1778 1751 1746 1758 1782 1799 1825 1872 1899 1891 1860 1825 1801 1793 1800 1817 1844 1868 1875 1873 1864 1851 1837 1830 1826 1822 1816 1809 1801 1798 1785 1769 1757 1753 1755 1764 1768 1767 1764 1757 1753 1750 1748 1744 1740 1738 1741 1740 1742 1746 1749 1748 1754 1762 1769 1776 1784 1793 1807 1832 1855 1876 1891 1902 1906 1907 1902 1909 1938 1976 1997 1999 2004 2005 2017 2036 2052 2061 2064 2077 2093 2099 2100
9999 1776 1796 1817 1843 1867 1888 1916 1952 1988 2017 2053 2105 2143 2128 2109 2106 2123 2126 2112 2092 2066 2039 2010 1968 1918 1877 1834 1827 1858 1895 1934 1971 1995 2014 2035 2059 2083 2102 2123 2156 2191 2202 2232 2267 2294 2301 2311 2311 2302 2294 2286 2272 2250 2218 2180 2153 2159 2174 2174 2162 2143 2126 2107 2084 2062 2039 2015 1990 1966 1940 1915 1881 1830 1787 1752 1768 1806 1848 1895 1955 2002 2014 2021 2026 2029 2034 2050 2072 2097 2097 2065 2022 1986 1950 1913 1875 1837 1801 1770 1732 1708 1711 1738 1778 1813 1856 1899 1952 1999 2006 1993 1980 1950 1906 1864 1838 1838 1853 1860 1844 1805 1781 1758 1750 1768 1791 1816 1845 1874 1896 1888 1861 1838 1818 1800 1798 1807 1834 1864 1879 1878 1870 1857 1845 1839 1835 1830 1822 1814 1805 1799 1789 1768 1761 1760 1769 1777 1779 1777 1774 1767 1763 1760 1756 1750 1745 1742 1743 1743 1743 1742 1743 1745 1749 1754 1760 1767 1774 1784 1793 1806 1827 1844 1856 1869 1883 1895 1899 1902 1939 1978 2000 2004 2014 2027 2044 2057 2069 2082 2090 2100 2107 2113 2117
9999 1778 1788 1805 1828 1850 1872 1892 1922 1960 2000 2037 2093 2150 2164 2140 2106 2130 2140 2127 2102 2071 2035 1998 1957 1915 1888 1852 1835 1848 1883 1909 1941 1979 1999 2004 2033 2069 2095 2111 2155 2194 2210 2232 2264 2288 2298 2293 2286 2277 2265 2258 2246 2222 2189 2144 2110 2105 2124 2137 2128 2109 2091 2079 2059 2035 2013 1990 1967 1943 1919 1891 1848 1800 1762 1762 1798 1842 1886 1939 1992 2011 2027 2037 2043 2048 2054 2075 2093 2101 2097 2064 2024 1987 1951 1913 1871 1827 1791 1758 1722 1709 1717 1754 1790 1824 1865 1910 1974 2009 2023 2016 2000 1959 1905 1870 1855 1876 1895 1890 1857 1807 1778 1755 1759 1784 1808 1846 1878 1886 1897 1888 1872 1855 1837 1813 1804 1809 1828 1858 1880 1882 1875 1863 1853 1848 1845 1837 1829 1819 1809 1800 1794 1777 1769 1773 1783 1789 1788 1785 1781 1777 1773 1771 1766 1759 1752 1748 1746 1746 1748 1749 1744 1745 1744 1747 1752 1758 1764 1774 1783 1792 1798 1810 1821 1839 1862 1884 1899 1917 1955 1992 2001 2008 2019 2032 2047 2063 2083 2096 2106 2116 2124 2134 2144
9999 1781 1781 1795 1817 1842 1866 1886 1899 1927 1969 2004 2059 2134 2171 2152 2103 2131 2151 2142 2110 2074 2027 1988 1950 1913 1899 1876 1848 1849 1869 1896 1936 1984 1999 2009 2033 2069 2095 2128 2166 2202 2224 2243 2262 2273 2277 2265 2257 2250 2240 2229 2219 2199 2165 2122 2099 2092 2085 2097 2092 2081 2064 2049 2031 2009 1986 1964 1941 1918 1893 1852 1811 1781 1761 1791 1829 1872 1922 1978 2009 2024 2040 2053 2061 2067 2073 2094 2105 2108 2098 2060 2020 1983 1944 1906 1862 1816 1782 1746 1717 1710 1728 1765 1798 1835 1873 1919 1983 2012 2037 2034 2009 1965 1899 1883 1889 1904 1914 1906 1870 1811 1779 1759 1767 1793 1831 1876 1902 1907 1904 1897 1889 1876 1859 1833 1822 1821 1830 1854 1878 1885 1879 1869 1862 1858 1852 1844 1835 1824 1813 1803 1793 1780 1784 1795 1800 1799 1796 1793 1790 1787 1783 1781 1776 1768 1761 1756 1753 1754 1756 1757 1750 1753 1751 1748 1746 1749 1756 1763 1769 1777 1785 1791 1798 1817 1844 1872 1898 1932 1967 2000 2001 2010 2022 2035 2050 2065 2080 2094 2107 2121 2137 2149 2160
9999 1784 1780 1790 1815 1844 1870 1891 1898 1900 1943 1985 2006 2071 2142 2139 2102 2130 2161 2151 2110 2054 2004 1989 1959 1930 1917 1894 1869 1857 1875 1902 1950 1995 2013 2028 2054 2083 2112 2146 2182 2211 2233 2248 2253 2248 2247 2238 2229 2220 2214 2202 2190 2176 2146 2111 2087 2065 2047 2051 2050 2050 2037 2020 2003 1982 1960 1937 1914 1888 1856 1815 1785 1766 1784 1818 1859 1903 1962 2005 2022 2038 2053 2067 2078 2085 2091 2101 2115 2110 2090 2054 2014 1975 1938 1900 1855 1808 1775 1738 1714 1714 1735 1772 1801 1838 1874 1916 1973 2016 2049 2043 2007 1952 1900 1899 1913 1929 1937 1923 1887 1815 1781 1763 1773 1798 1845 1894 1915 1924 1923 1918 1909 1898 1882 1862 1847 1843 1845 1856 1877 1887 1884 1876 1871 1867 1859 1852 1842 1830 1818 1806 1794 1788 1797 1800 1800 1800 1800 1800 1798 1795 1792 1790 1785 1778 1772 1767 1764 1764 1766 1766 1763 1763 1760 1756 1753 1750 1748 1753 1755 1761 1769 1779 1789 1801 1832 1864 1901 1934 1967 1998 2002 2011 2022 2036 2050 2064 2078 2090 2100 2113 2128 2141 2154
9999 1788 1789 1798 1819 1855 1882 1897 1900 1906 1946 1989 1998 2018 2060 2077 2093 2116 2159 2165 2104 2041 1999 1995 1976 1959 1936 1909 1881 1874 1896 1932 1975 2008 2028 2047 2066 2090 2123 2159 2194 2222 2244 2246 2233 2221 2216 2211 2203 2186 2174 2160 2156 2149 2127 2103 2083 2040 2010 2006 2010 2014 2011 1992 1973 1954 1933 1910 1884 1854 1822 1793 1774 1783 1808 1848 1889 1945 2001 2019 2036 2052 2067 2081 2093 2101 2109 2126 2124 2104 2077 2043 2007 1967 1926 1886 1844 1801 1768 1734 1713 1722 1749 1778 1800 1835 1872 1912 1969 2020 2064 2032 1993 1942 1910 1925 1944 1961 1958 1931 1900 1819 1783 1767 1780 1806 1852 1900 1922 1939 1946 1941 1928 1916 1904 1887 1873 1868 1867 1870 1880 1890 1889 1884 1880 1876 1868 1860 1849 1837 1823 1810 1797 1795 1800 1800 1800 1801 1806 1807 1806 1803 1800 1798 1794 1789 1785 1780 1778 1776 1777 1772 1774 1773 1770 1766 1763 1760 1756 1752 1751 1753 1759 1767 1781 1794 1814 1853 1899 1929 1958 1987 2001 2010 2021 2035 2049 2061 2072 2082 2092 2101 2113 2125 2135
9999 1793 1799 1823 1843 1871 1893 1907 1924 1937 1967 1994 2000 2000 2028 2059 2083 2100 2166 2165 2103 2056 2017 2005 1996 1982 1955 1922 1895 1886 1906 1952 1994 2013 2034 2055 2076 2098 2129 2164 2200 2231 2250 2236 2212 2199 2181 2161 2146 2135 2123 2121 2120 2120 2105 2081 2057 2022 1997 1984 1979 1980 1979 1963 1943 1924 1905 1882 1854 1822 1797 1783 1782 1799 1837 1876 1926 1991 2015 2032 2049 2067 2082 2096 2112 2132 2138 2134 2113 2091 2063 2032 2001 1959 1917 1873 1829 1790 1749 1723 1721 1738 1768 1795 1825 1854 1885 1918 1961 2014 2073 2017 1988 1959 1938 1953 1972 1977 1964 1928 1900 1820 1784 1772 1790 1821 1864 1903 1923 1944 1959 1958 1949 1935 1917 1901 1891 1888 1887 1888 1890 1896 1896 1892 1890 1884 1878 1868 1859 1846 1833 1812 1799 1799 1795 1795 1801 1808 1815 1816 1815 1812 1809 1808 1804 1801 1797 1793 1791 1787 1787 1785 1783 1783 1781 1777 1776 1772 1768 1759 1754 1752 1754 1760 1773 1787 1798 1832 1878 1915 1942 1969 1997 2009 2021 2033 2044 2054 2064 2074 2083 2092 2099 2106 2115
9999 1797 1819 1847 1871 1894 1919 1946 1967 1983 1995 2001 2008 2015 2034 2061 2084 2109 2173 2181 2122 2089 2066 2049 2028 1998 1968 1934 1903 1897 1911 1951 1995 2013 2036 2060 2083 2108 2139 2172 2205 2242 2245 2213 2194 2161 2125 2098 2086 2071 2056 2053 2059 2063 2044 2034 2018 1995 1975 1957 1945 1947 1944 1931 1913 1895 1877 1854 1827 1799 1791 1787 1797 1826 1865 1905 1973 2010 2028 2045 2063 2081 2098 2124 2147 2148 2135 2117 2100 2076 2049 2020 1985 1943 1905 1862 1814 1772 1732 1718 1741 1768 1793 1822 1858 1888 1908 1938 1969 2012 2081 2006 1995 1981 1971 1980 1985 1979 1952 1917 1879 1822 1788 1777 1794 1829 1873 1906 1927 1950 1967 1971 1965 1950 1928 1908 1897 1897 1897 1900 1903 1907 1905 1903 1899 1894 1889 1880 1870 1858 1840 1822 1805 1802 1800 1803 1810 1819 1825 1826 1825 1821 1819 1817 1813 1810 1806 1804 1802 1798 1796 1794 1793 1793 1791 1790 1789 1786 1783 1774 1766 1757 1754 1756 1766 1781 1791 1801 1849 1902 1930 1958 1985 2005 2016 2026 2036 2046 2056 2066 2075 2084 2091 2096 2100
9999 1799 1830 1864 1894 1920 1949 1976 2001 2010 2017 2023 2032 2046 2059 2081 2102 2142 2186 2190 2135 2113 2101 2071 2042 2011 1978 1945 1918 1902 1917 1950 1988 2015 2040 2066 2091 2118 2145 2173 2205 2244 2242 2204 2185 2141 2100 2088 2040 2000 1998 1993 1986 1981 1980 1978 1976 1970 1950 1928 1912 1913 1909 1898 1886 1866 1849 1825 1806 1797 1793 1797 1815 1849 1886 1951 2004 2022 2040 2058 2076 2093 2125 2157 2149 2129 2107 2088 2073 2058 2036 2009 1969 1924 1881 1839 1796 1753 1722 1728 1759 1791 1821 1856 1890 1920 1942 1970 2002 2062 2089 2026 1999 1998 1996 1993 1988 1966 1937 1912 1877 1829 1793 1782 1797 1836 1880 1910 1931 1956 1975 1980 1974 1956 1932 1910 1893 1891 1899 1908 1915 1923 1925 1922 1916 1909 1903 1895 1884 1869 1850 1826 1810 1809 1810 1813 1821 1831 1835 1836 1834 1831 1829 1826 1823 1819 1816 1813 1811 1808 1806 1804 1803 1804 1802 1802 1799 1799 1796 1791 1781 1767 1757 1756 1762 1772 1783 1794 1816 1878 1919 1946 1971 1996 2008 2018 2028 2038 2047 2057 2067 2077 2086 2090 2085
9999 1802 1837 1875 1908 1940 1972 2000 2011 2024 2034 2043 2053 2067 2085 2103 2120 2146 2187 2193 2148 2133 2112 2087 2054 2019 1986 1963 1937 1932 1949 1972 1994 2018 2044 2069 2095 2123 2151 2178 2206 2236 2249 2218 2192 2155 2118 2086 2045 2003 1995 1968 1949 1933 1924 1919 1938 1944 1929 1906 1894 1888 1879 1867 1850 1830 1819 1810 1801 1799 1799 1810 1837 1869 1904 1993 2016 2034 2052 2071 2089 2113 2154 2154 2110 2094 2062 2044 2038 2034 2018 1992 1951 1909 1862 1814 1775 1733 1724 1754 1789 1817 1849 1883 1918 1945 1972 1999 2025 2074 2094 2040 2019 2025 2018 2003 1988 1967 1942 1916 1877 1819 1792 1787 1800 1844 1887 1913 1936 1962 1980 1986 1983 1964 1936 1912 1897 1898 1908 1920 1930 1939 1945 1942 1936 1928 1918 1907 1897 1878 1853 1826 1811 1817 1822 1826 1835 1843 1846 1846 1843 1840 1839 1835 1832 1828 1825 1823 1821 1817 1816 1816 1815 1815 1813 1810 1805 1801 1799 1800 1790 1773 1761 1757 1759 1765 1775 1785 1795 1836 1902 1927 1952 1977 2000 2010 2020 2029 2039 2049 2059 2073 2082 2084 2072
9999 1804 1840 1882 1916 1947 1978 2003 2018 2034 2049 2061 2072 2086 2103 2121 2138 2156 2186 2192 2166 2148 2128 2105 2074 2037 1997 1983 1973 1969 1984 1998 1999 2016 2048 2078 2104 2130 2158 2185 2209 2238 2251 2233 2209 2184 2149 2119 2096 2073 2038 2006 1984 1959 1929 1911 1914 1917 1915 1893 1871 1854 1843 1829 1815 1805 1802 1807 1811 1813 1814 1827 1854 1885 1934 1986 2015 2039 2061 2083 2102 2142 2165 2130 2089 2049 2009 2000 1999 2004 1995 1962 1923 1881 1836 1792 1751 1726 1738 1781 1815 1845 1874 1903 1937 1970 1998 2020 2044 2078 2092 2059 2051 2049 2038 2020 1998 1974 1946 1918 1881 1828 1796 1793 1807 1851 1895 1917 1941 1965 1982 1990 1987 1969 1943 1922 1903 1906 1923 1934 1947 1957 1963 1962 1955 1945 1931 1913 1900 1878 1846 1817 1810 1823 1836 1841 1849 1855 1856 1856 1853 1850 1848 1845 1841 1838 1835 1833 1830 1827 1827 1830 1828 1828 1824 1820 1813 1806 1801 1800 1793 1779 1765 1758 1758 1759 1765 1774 1787 1797 1855 1907 1932 1957 1981 2002 2011 2021 2031 2041 2053 2069 2079 2077 2061
9999 1803 1838 1884 1919 1952 1984 2009 2025 2042 2059 2074 2088 2103 2122 2139 2155 2170 2188 2196 2181 2165 2145 2121 2096 2056 2006 1997 1996 1995 2001 1996 2004 2023 2053 2084 2112 2140 2168 2196 2216 2237 2250 2240 2221 2204 2180 2147 2127 2109 2083 2054 2028 2006 1983 1951 1925 1902 1892 1879 1849 1827 1813 1807 1803 1802 1807 1825 1837 1841 1842 1844 1863 1891 1928 1970 2005 2033 2061 2089 2115 2154 2162 2120 2080 2038 2000 1999 1993 1969 1942 1913 1884 1848 1802 1770 1735 1730 1763 1800 1836 1871 1901 1929 1960 1993 2019 2043 2064 2086 2094 2083 2079 2073 2057 2034 2008 1979 1949 1919 1884 1835 1799 1798 1814 1857 1900 1919 1940 1962 1980 1990 1990 1975 1955 1937 1925 1926 1940 1949 1961 1972 1977 1976 1969 1956 1935 1914 1898 1866 1832 1811 1811 1829 1846 1857 1863 1867 1867 1865 1862 1859 1857 1854 1851 1847 1845 1843 1839 1838 1840 1845 1843 1842 1837 1830 1821 1813 1806 1799 1791 1777 1768 1763 1761 1760 1761 1767 1777 1790 1799 1868 1912 1936 1960 1984 2003 2013 2022 2032 2048 2065 2073 2070 2050
9999 1803 1828 1873 1911 1948 1984 2011 2031 2049 2067 2085 2100 2121 2142 2161 2174 2188 2197 2200 2198 2184 2162 2137 2111 2069 2012 2000 1999 2005 2020 2019 2025 2040 2064 2090 2118 2145 2172 2200 2218 2241 2250 2245 2229 2211 2199 2168 2147 2126 2109 2091 2066 2041 2017 1996 1945 1893 1874 1855 1832 1813 1806 1806 1810 1818 1833 1854 1869 1872 1873 1864 1869 1890 1918 1954 1986 2020 2063 2100 2109 2134 2135 2105 2078 2046 2006 1994 1966 1932 1903 1871 1843 1808 1781 1745 1732 1749 1786 1820 1855 1891 1926 1958 1987 2013 2039 2065 2086 2103 2112 2113 2103 2092 2070 2042 2014 1984 1949 1915 1878 1838 1803 1800 1824 1868 1904 1923 1941 1959 1977 1989 1994 1984 1972 1958 1954 1953 1961 1965 1973 1982 1987 1984 1976 1958 1933 1910 1887 1856 1821 1810 1814 1836 1860 1872 1876 1877 1877 1875 1871 1869 1867 1864 1860 1856 1855 1852 1849 1848 1853 1859 1858 1856 1850 1840 1830 1820 1811 1802 1789 1777 1773 1770 1768 1766 1763 1763 1769 1779 1791 1817 1882 1916 1941 1965 1989 2004 2014 2025 2042 2058 2065 2062 2041
9999 1806 1827 1866 1903 1943 1982 2011 2032 2053 2073 2092 2112 2135 2158 2180 2198 2200 2200 2199 2198 2200 2175 2150 2123 2090 2029 2000 2000 2021 2041 2050 2053 2064 2080 2096 2126 2157 2186 2206 2224 2244 2250 2241 2227 2213 2202 2184 2161 2142 2125 2108 2088 2062 2038 2011 1963 1911 1882 1856 1827 1811 1811 1823 1841 1856 1871 1886 1896 1901 1898 1886 1875 1886 1899 1928 1962 1990 2022 2072 2100 2106 2104 2090 2067 2040 2012 1980 1941 1905 1870 1834 1804 1785 1755 1736 1744 1778 1808 1840 1875 1911 1949 1984 2012 2034 2058 2084 2115 2158 2180 2183 2154 2104 2078 2049 2020 1989 1952 1915 1880 1841 1811 1807 1835 1877 1908 1927 1946 1965 1980 1992 2000 1996 1990 1984 1983 1982 1982 1981 1985 1990 1992 1989 1978 1956 1929 1906 1877 1842 1819 1819 1826 1848 1874 1886 1888 1887 1886 1884 1880 1879 1876 1873 1869 1866 1865 1861 1859 1859 1866 1873 1873 1868 1860 1850 1838 1827 1815 1802 1790 1780 1781 1784 1785 1780 1773 1766 1765 1769 1781 1796 1841 1893 1921 1946 1968 1989 2004 2017 2034 2048 2054 2050 2029
9999 1819 1824 1857 1896 1942 1990 2017 2037 2058 2078 2098 2119 2141 2164 2188 2200 2202 2205 2206 2205 2204 2190 2164 2137 2108 2061 2012 2005 2037 2065 2078 2083 2086 2094 2100 2134 2169 2200 2217 2236 2249 2248 2237 2223 2213 2204 2188 2166 2146 2128 2111 2097 2073 2045 2018 1985 1936 1893 1858 1822 1812 1824 1852 1873 1890 1902 1917 1929 1928 1913 1897 1883 1884 1895 1916 1951 1983 2000 2034 2070 2090 2087 2074 2051 2027 2002 1970 1931 1893 1849 1810 1783 1761 1741 1740 1766 1798 1831 1862 1895 1935 1974 2006 2029 2052 2076 2102 2143 2182 2200 2200 2169 2109 2076 2045 2014 1983 1950 1918 1883 1841 1809 1808 1841 1883 1911 1933 1953 1972 1989 2003 2014 2018 2014 2010 2011 2009 2002 1996 1995 1995 1994 1990 1974 1949 1923 1901 1867 1832 1821 1837 1861 1876 1891 1900 1899 1897 1896 1893 1890 1888 1886 1882 1878 1876 1874 1870 1869 1871 1879 1884 1883 1878 1869 1858 1845 1831 1815 1799 1790 1787 1793 1798 1798 1794 1786 1776 1769 1767 1774 1788 1799 1850 1901 1926 1947 1967 1985 2002 2013 2027 2035 2030 2013
9999 1839 1833 1857 1890 1932 1979 2013 2039 2064 2086 2106 2125 2146 2168 2189 2200 2207 2211 2216 2221 2222 2207 2182 2155 2123 2086 2044 2038 2059 2089 2104 2107 2101 2099 2115 2153 2189 2209 2230 2246 2249 2244 2231 2216 2210 2200 2181 2162 2143 2125 2109 2099 2073 2046 2020 1988 1936 1890 1848 1818 1819 1841 1874 1898 1918 1939 1955 1966 1959 1937 1904 1889 1889 1899 1930 1965 1993 2000 2027 2066 2082 2071 2056 2035 2011 1985 1957 1925 1886 1841 1799 1773 1748 1742 1758 1788 1816 1849 1881 1918 1962 2001 2021 2043 2067 2090 2119 2154 2187 2200 2196 2150 2100 2071 2042 2014 1984 1954 1923 1891 1845 1804 1806 1838 1882 1911 1935 1958 1979 1999 2016 2031 2040 2041 2038 2039 2039 2031 2020 2010 1999 1996 1992 1971 1943 1917 1890 1852 1830 1840 1867 1890 1903 1910 1918 1918 1914 1911 1906 1899 1898 1895 1891 1888 1886 1883 1880 1879 1882 1889 1893 1891 1884 1875 1863 1846 1828 1811 1798 1792 1795 1800 1800 1800 1801 1799 1791 1781 1771 1769 1776 1789 1811 1865 1903 1922 1942 1960 1978 1993 2003 2009 2007 1993
9999 1860 1845 1857 1884 1916 1967 2012 2038 2063 2088 2110 2130 2149 2169 2189 2204 2216 2229 2242 2250 2248 2230 2203 2172 2136 2097 2082 2079 2085 2104 2126 2134 2125 2118 2139 2179 2208 2228 2244 2250 2245 2225 2215 2205 2200 2181 2162 2147 2132 2118 2104 2085 2062 2036 2010 1973 1925 1882 1836 1820 1844 1873 1896 1923 1949 1974 1994 2000 1988 1960 1916 1898 1899 1924 1955 1983 2001 2013 2045 2078 2077 2058 2038 2019 1998 1972 1943 1915 1880 1841 1801 1773 1747 1751 1778 1803 1835 1867 1899 1944 1988 2014 2035 2057 2079 2102 2127 2161 2189 2195 2179 2135 2095 2068 2041 2014 1985 1951 1917 1883 1837 1805 1807 1844 1888 1916 1940 1963 1986 2007 2026 2044 2058 2067 2068 2068 2069 2061 2049 2037 2021 2005 1994 1972 1942 1910 1876 1841 1840 1865 1893 1912 1924 1930 1937 1938 1934 1931 1925 1920 1917 1909 1901 1897 1896 1892 1889 1888 1891 1896 1898 1895 1888 1877 1861 1843 1825 1810 1799 1797 1798 1802 1806 1809 1810 1808 1802 1793 1783 1773 1771 1779 1794 1824 1866 1898 1917 1936 1954 1968 1979 1987 1985 1966
9999 1878 1872 1867 1879 1898 1959 2009 2034 2060 2085 2108 2127 2147 2165 2184 2203 2223 2250 2270 2279 2276 2255 2220 2186 2150 2111 2097 2098 2099 2120 2145 2159 2155 2151 2168 2194 2224 2243 2258 2260 2243 2216 2198 2190 2172 2153 2138 2125 2114 2104 2081 2061 2041 2019 1992 1954 1917 1874 1829 1830 1868 1900 1923 1948 1977 2002 2021 2025 2010 1977 1924 1902 1923 1954 1983 2008 2031 2048 2076 2089 2076 2050 2024 2004 1984 1960 1931 1903 1866 1826 1793 1766 1750 1759 1788 1816 1849 1881 1920 1966 2005 2024 2044 2065 2088 2112 2142 2171 2189 2185 2161 2125 2091 2065 2039 2013 1984 1952 1918 1885 1839 1807 1811 1853 1895 1921 1946 1971 1994 2015 2035 2055 2073 2086 2093 2096 2098 2089 2076 2063 2046 2027 2004 1977 1942 1905 1864 1846 1868 1897 1919 1935 1946 1951 1956 1957 1954 1950 1945 1941 1937 1930 1922 1917 1912 1904 1898 1897 1897 1898 1898 1896 1888 1874 1856 1837 1819 1806 1795 1800 1811 1816 1820 1822 1822 1819 1813 1805 1796 1786 1776 1774 1782 1796 1823 1854 1890 1913 1930 1945 1957 1960 1958 1939
9999 1892 1899 1896 1895 1897 1942 2003 2029 2054 2080 2103 2121 2139 2158 2181 2205 2227 2250 2280 2298 2299 2277 2242 2210 2176 2133 2100 2100 2110 2140 2167 2184 2187 2184 2193 2210 2239 2263 2275 2273 2247 2220 2202 2181 2146 2116 2103 2097 2085 2062 2043 2025 2013 1994 1965 1926 1893 1852 1829 1846 1888 1920 1948 1971 1999 2027 2050 2047 2021 1993 1950 1936 1951 1982 2007 2032 2056 2082 2100 2098 2077 2043 2011 1989 1968 1947 1925 1897 1858 1818 1788 1761 1753 1771 1797 1828 1861 1893 1935 1982 2011 2031 2052 2072 2092 2116 2150 2179 2188 2176 2142 2112 2085 2059 2033 2008 1978 1946 1914 1881 1838 1808 1815 1855 1896 1924 1951 1977 2002 2022 2043 2063 2082 2101 2109 2119 2124 2114 2103 2087 2066 2043 2018 1988 1942 1899 1862 1861 1893 1927 1949 1962 1969 1973 1977 1977 1974 1970 1965 1962 1957 1952 1944 1939 1934 1926 1918 1910 1902 1899 1898 1894 1883 1862 1843 1825 1810 1802 1799 1813 1827 1832 1836 1838 1836 1832 1825 1816 1808 1799 1790 1780 1776 1781 1793 1813 1846 1882 1909 1924 1933 1934 1931 1913
9999 1906 1927 1923 1904 1904 1945 1996 2022 2045 2068 2089 2110 2131 2153 2176 2198 2222 2248 2273 2297 2302 2300 2274 2240 2203 2162 2125 2114 2135 2167 2193 2211 2219 2214 2213 2235 2265 2284 2293 2285 2263 2239 2215 2189 2126 2099 2094 2075 2045 2016 1999 1991 1979 1963 1939 1903 1867 1837 1845 1884 1911 1939 1971 1995 2019 2053 2071 2061 2026 1996 1985 1980 1983 2002 2019 2046 2076 2102 2112 2100 2062 2022 1994 1975 1955 1933 1912 1882 1844 1805 1783 1760 1760 1782 1806 1838 1871 1906 1949 1993 2012 2032 2054 2076 2097 2121 2152 2174 2178 2161 2129 2101 2074 2049 2023 1997 1969 1940 1910 1878 1834 1811 1820 1859 1897 1926 1953 1980 2005 2026 2047 2068 2089 2110 2129 2146 2153 2142 2125 2103 2080 2055 2029 2004 1949 1896 1865 1882 1919 1962 1987 1994 1995 1996 1998 1997 1993 1990 1986 1982 1978 1974 1966 1961 1956 1948 1938 1930 1919 1910 1901 1896 1879 1849 1827 1811 1802 1797 1814 1832 1849 1851 1854 1853 1850 1844 1837 1829 1820 1812 1804 1797 1787 1780 1780 1789 1800 1829 1867 1905 1909 1908 1904 1883
9999 1942 1956 1945 1924 1908 1933 1977 2008 2029 2050 2072 2097 2119 2141 2163 2186 2211 2238 2264 2290 2312 2318 2303 2268 2228 2190 2159 2152 2170 2196 2221 2243 2255 2257 2259 2271 2295 2303 2304 2297 2276 2252 2230 2207 2153 2106 2093 2065 2028 2000 1992 1968 1941 1933 1910 1887 1849 1842 1875 1909 1934 1958 1991 2019 2042 2073 2082 2063 2027 1998 1996 1995 2000 2008 2024 2050 2081 2109 2108 2079 2031 1995 1979 1961 1941 1920 1898 1860 1822 1794 1773 1761 1769 1792 1816 1845 1874 1905 1946 1984 2008 2029 2051 2073 2095 2116 2140 2159 2164 2150 2122 2097 2070 2041 2014 1989 1963 1937 1910 1879 1835 1814 1827 1868 1903 1932 1962 1989 2010 2029 2049 2070 2091 2116 2149 2172 2180 2171 2144 2112 2086 2061 2035 2009 1958 1897 1875 1897 1947 1991 2007 2017 2022 2023 2024 2022 2017 2012 2007 2003 2000 1996 1987 1983 1977 1968 1958 1946 1933 1921 1908 1900 1877 1844 1814 1802 1798 1808 1837 1857 1871 1871 1871 1869 1864 1856 1849 1841 1834 1826 1818 1810 1802 1795 1789 1782 1787 1794 1799 1841 1863 1877 1875 1839
9999 1981 1984 1972 1948 1908 1912 1951 1987 2008 2030 2053 2078 2103 2124 2148 2174 2201 2227 2254 2286 2315 2336 2321 2292 2252 2212 2191 2188 2195 2223 2251 2275 2289 2299 2302 2302 2310 2317 2317 2305 2286 2263 2239 2216 2186 2141 2102 2076 2041 2009 1985 1947 1911 1899 1887 1861 1846 1862 1896 1926 1954 1979 2007 2041 2068 2091 2084 2057 2026 1999 1990 1999 2008 2019 2025 2043 2079 2098 2077 2027 1993 1979 1964 1947 1929 1908 1877 1838 1800 1784 1768 1765 1780 1799 1820 1844 1871 1895 1929 1964 2003 2023 2044 2064 2084 2103 2121 2141 2148 2134 2108 2085 2059 2033 2005 1980 1955 1930 1905 1874 1833 1819 1835 1876 1908 1938 1968 1997 2016 2035 2053 2072 2091 2117 2155 2189 2199 2188 2151 2114 2086 2062 2039 2014 1971 1898 1885 1902 1966 2008 2024 2038 2048 2052 2051 2048 2043 2035 2029 2024 2020 2015 2007 2004 1998 1987 1974 1959 1944 1928 1913 1900 1884 1847 1811 1801 1803 1827 1861 1881 1892 1890 1887 1883 1876 1868 1862 1855 1848 1840 1831 1824 1816 1809 1804 1794 1786 1786 1792 1797 1807 1855 1843 1812
9999 2011 2009 1999 1966 1922 1912 1930 1962 1988 2004 2026 2053 2081 2109 2134 2161 2188 2217 2249 2282 2313 2347 2347 2317 2285 2245 2212 2201 2226 2252 2279 2302 2311 2318 2322 2321 2328 2332 2325 2309 2292 2269 2247 2224 2203 2166 2130 2092 2057 2026 1998 1953 1901 1891 1872 1855 1858 1885 1912 1943 1973 2000 2030 2063 2090 2101 2086 2057 2025 2003 1999 2008 2018 2024 2029 2030 2046 2051 2013 1990 1975 1962 1948 1933 1916 1894 1855 1817 1793 1776 1769 1775 1792 1801 1810 1826 1849 1874 1901 1938 1986 2011 2030 2050 2069 2087 2101 2114 2120 2109 2091 2069 2045 2020 1994 1969 1945 1921 1896 1865 1832 1823 1844 1883 1913 1943 1972 2001 2019 2037 2055 2073 2091 2116 2149 2182 2200 2189 2153 2116 2087 2064 2040 2017 1979 1906 1896 1927 1988 2019 2041 2060 2073 2079 2077 2075 2068 2057 2051 2045 2039 2032 2025 2021 2013 2001 1985 1968 1950 1933 1916 1902 1878 1842 1811 1802 1812 1844 1879 1900 1900 1900 1900 1895 1888 1882 1876 1870 1862 1852 1845 1837 1829 1823 1815 1805 1796 1790 1789 1792 1797 1817 1813 1807
9999 2034 2031 2018 1990 1954 1924 1926 1944 1969 1991 2003 2024 2060 2092 2119 2146 2175 2205 2238 2271 2305 2344 2365 2348 2313 2279 2246 2235 2261 2288 2304 2317 2332 2341 2343 2343 2346 2343 2331 2308 2291 2269 2248 2228 2208 2177 2137 2098 2067 2038 2008 1957 1899 1881 1864 1861 1877 1899 1930 1959 1989 2022 2055 2086 2104 2106 2093 2068 2038 2025 2025 2045 2048 2037 2026 2018 2012 2002 1986 1971 1957 1943 1930 1918 1903 1870 1834 1798 1786 1775 1777 1790 1804 1811 1810 1809 1818 1848 1877 1912 1955 1992 2014 2034 2052 2069 2081 2091 2094 2089 2071 2050 2027 2004 1980 1954 1928 1905 1887 1858 1831 1830 1854 1889 1918 1948 1978 2004 2022 2039 2056 2074 2091 2115 2148 2178 2201 2192 2158 2118 2088 2064 2040 2017 1982 1916 1901 1945 1997 2026 2054 2076 2093 2100 2100 2100 2090 2079 2073 2064 2057 2051 2045 2036 2023 2009 1993 1975 1957 1938 1918 1900 1872 1834 1808 1804 1821 1857 1890 1900 1900 1900 1903 1902 1902 1896 1891 1884 1874 1866 1858 1850 1843 1835 1825 1815 1805 1797 1792 1791 1795 1799 1801 1811
9999 2057 2052 2035 2009 1981 1949 1935 1951 1977 1997 1999 2018 2048 2079 2102 2130 2160 2188 2218 2254 2290 2330 2371 2373 2343 2309 2286 2276 2295 2310 2322 2336 2352 2363 2365 2362 2358 2346 2329 2307 2288 2268 2249 2230 2210 2181 2143 2107 2074 2039 2004 1952 1899 1881 1868 1874 1892 1917 1950 1979 2007 2040 2074 2103 2117 2114 2099 2072 2053 2053 2066 2096 2088 2066 2032 2005 1999 1986 1968 1950 1938 1924 1912 1900 1878 1844 1808 1793 1782 1779 1790 1803 1821 1833 1830 1818 1816 1826 1852 1890 1920 1956 1998 2017 2035 2050 2064 2077 2084 2072 2052 2031 2010 1989 1964 1935 1910 1893 1875 1851 1834 1838 1865 1895 1922 1950 1978 2004 2021 2039 2056 2073 2090 2112 2140 2173 2196 2188 2155 2118 2088 2065 2041 2018 1987 1926 1903 1965 2007 2033 2062 2088 2103 2107 2108 2105 2102 2100 2093 2083 2075 2069 2060 2047 2031 2015 2000 1981 1961 1942 1921 1900 1869 1832 1808 1806 1826 1863 1895 1901 1905 1909 1912 1914 1914 1911 1906 1896 1887 1879 1872 1863 1855 1846 1835 1826 1814 1802 1797 1794 1794 1796 1799 1816
9999 2080 2075 2056 2030 1997 1965 1950 1970 1998 2017 2027 2033 2059 2084 2097 2112 2141 2172 2204 2242 2281 2320 2366 2386 2375 2338 2313 2307 2312 2323 2343 2360 2371 2377 2376 2366 2353 2338 2319 2302 2284 2266 2247 2228 2209 2179 2141 2103 2064 2026 1986 1931 1895 1880 1875 1886 1903 1934 1967 2000 2029 2060 2093 2115 2129 2116 2094 2068 2068 2080 2100 2106 2102 2079 2038 2009 1994 1977 1955 1932 1914 1905 1890 1870 1844 1816 1797 1790 1784 1789 1799 1820 1841 1856 1865 1853 1842 1833 1839 1858 1889 1921 1965 2001 2019 2035 2051 2066 2077 2061 2034 2013 1998 1983 1956 1926 1900 1888 1873 1856 1841 1846 1874 1899 1925 1952 1978 2003 2020 2037 2054 2070 2086 2104 2135 2169 2188 2183 2152 2115 2089 2067 2045 2023 2000 1938 1910 1968 2012 2041 2070 2097 2107 2113 2114 2111 2109 2107 2104 2100 2093 2084 2071 2055 2039 2020 2006 1989 1967 1945 1923 1901 1870 1831 1808 1818 1847 1875 1901 1909 1916 1922 1926 1929 1929 1926 1920 1909 1900 1893 1884 1876 1866 1856 1846 1835 1823 1810 1799 1797 1796 1797 1799 1821
