ncols         205
nrows         93
xllcorner     0
yllcorner     72
cellsize      2
NODATA_value  9999
9999 2819 2851 2879 2892 2899 2895 2878 2857 2832 2805 2768 2722 2673 2629 2620 2645 2672 2694 2700 2701 2713 2758 2807 2848 2888 2935 2986 3017 3039 3060 3082 3104 3133 3162 3191 3211 3229 3247 3259 3259 3251 3239 3227 3216 3206 3197 3187 3177 3167 3157 3158 3164 3174 3186 3197 3209 3222 3235 3247 3260 3273 3285 3298 3312 3328 3343 3359 3375 3391 3405 3415 3426 3436 3447 3458 3468 3478 3488 3498 3502 3510 3518 3525 3528 3533 3539 3541 3543 3543 3543 3542 3540 3538 3536 3534 3532 3529 3524 3519 3512 3505 3500 3492 3480 3468 3456 3443 3431 3420 3410 3403 3393 3380 3367 3357 3350 3346 3343 3340 3338 3338 3337 3332 3327 3321 3314 3306 3298 3285 3273 3257 3241 3226 3220 3223 3234 3246 3255 3263 3270 3276 3280 3283 3286 3288 3289 3290 3292 3294 3299 3300 3300 3300 3299 3294 3293 3295 3292 3284 3275 3264 3251 3237 3222 3207 3192 3179 3164 3146 3129 3123 3130 3142 3150 3154 3158 3160 3159 3154 3147 3139 3130 3121 3110 3097 3081 3066 3052 3038 3029 3023 3028 3027 3041 3036 3033 3033 3037 3042 3051 3060 3073 3083 3093
9999 2836 2865 2897 2901 2903 2902 2899 2876 2850 2823 2791 2740 2693 2669 2667 2682 2704 2722 2733 2739 2745 2771 2807 2845 2887 2934 2984 3017 3042 3067 3090 3115 3143 3172 3200 3214 3223 3228 3234 3239 3239 3231 3225 3212 3203 3193 3183 3173 3164 3155 3156 3165 3176 3187 3196 3208 3220 3232 3245 3257 3270 3282 3294 3307 3324 3340 3356 3373 3389 3403 3414 3424 3435 3446 3457 3468 3479 3489 3499 3506 3517 3527 3534 3538 3543 3549 3553 3553 3551 3547 3543 3537 3534 3530 3528 3524 3519 3513 3508 3503 3496 3486 3476 3466 3454 3442 3429 3417 3405 3393 3380 3367 3349 3334 3328 3323 3321 3322 3322 3323 3323 3324 3323 3319 3313 3307 3300 3291 3280 3268 3255 3241 3226 3219 3221 3230 3240 3247 3256 3262 3267 3271 3274 3276 3276 3275 3275 3275 3276 3276 3277 3271 3266 3264 3270 3279 3287 3286 3278 3265 3254 3242 3229 3216 3200 3185 3171 3158 3143 3129 3119 3122 3128 3135 3140 3145 3147 3145 3139 3134 3123 3114 3105 3095 3081 3066 3051 3037 3023 3010 2998 2995 2994 2997 3010 3013 3017 3021 3029 3035 3049 3063 3076 3087
9999 2857 2884 2904 2911 2916 2918 2913 2896 2869 2840 2808 2762 2710 2695 2698 2708 2730 2749 2762 2774 2785 2793 2820 2852 2887 2936 2992 3021 3045 3069 3092 3121 3153 3183 3213 3230 3239 3239 3234 3227 3223 3221 3215 3210 3201 3191 3181 3170 3160 3151 3153 3162 3172 3183 3194 3205 3217 3229 3242 3254 3266 3278 3290 3304 3320 3337 3353 3369 3386 3401 3412 3422 3433 3444 3455 3466 3477 3488 3498 3509 3522 3536 3544 3547 3551 3556 3558 3557 3553 3548 3536 3526 3521 3518 3514 3511 3507 3503 3499 3490 3480 3470 3461 3451 3439 3427 3415 3403 3388 3373 3358 3344 3325 3305 3298 3296 3297 3301 3304 3308 3310 3311 3312 3310 3307 3302 3296 3286 3274 3263 3250 3237 3226 3217 3218 3225 3231 3239 3247 3253 3257 3261 3264 3265 3264 3261 3260 3259 3257 3254 3251 3237 3226 3228 3246 3265 3280 3280 3273 3258 3243 3232 3221 3208 3194 3179 3164 3149 3137 3122 3114 3112 3115 3121 3127 3131 3133 3131 3125 3120 3110 3099 3087 3075 3064 3050 3036 3021 3008 2994 2984 2980 2981 2986 2994 2999 3002 3008 3014 3026 3040 3055 3070 3083
9999 2880 2904 2924 2934 2940 2940 2930 2912 2887 2856 2823 2784 2728 2695 2699 2726 2757 2778 2792 2805 2819 2825 2844 2870 2895 2933 2987 3018 3042 3066 3091 3124 3159 3193 3227 3251 3260 3260 3253 3241 3228 3217 3209 3204 3198 3187 3177 3166 3155 3146 3148 3157 3168 3180 3191 3202 3214 3226 3238 3250 3262 3275 3288 3300 3317 3334 3351 3368 3385 3401 3412 3423 3434 3445 3455 3466 3477 3487 3498 3511 3528 3543 3552 3555 3557 3559 3559 3556 3550 3540 3523 3512 3508 3505 3503 3500 3496 3488 3481 3473 3463 3455 3445 3436 3425 3412 3400 3387 3373 3357 3340 3323 3305 3286 3275 3273 3276 3280 3284 3291 3299 3301 3302 3302 3300 3297 3290 3280 3269 3257 3245 3232 3222 3215 3214 3218 3223 3233 3239 3244 3248 3252 3254 3254 3253 3249 3246 3243 3238 3232 3226 3205 3200 3206 3228 3252 3273 3275 3268 3254 3237 3222 3211 3200 3186 3172 3158 3142 3128 3116 3104 3100 3103 3107 3114 3118 3119 3118 3111 3105 3097 3082 3068 3056 3044 3032 3019 3006 2991 2976 2967 2964 2967 2975 2986 2996 2999 3000 3006 3020 3035 3051 3066 3083
9999 2906 2928 2948 2960 2966 2962 2949 2927 2904 2873 2838 2800 2749 2724 2725 2748 2781 2805 2821 2835 2850 2862 2876 2893 2900 2930 2977 3010 3038 3067 3096 3133 3170 3205 3242 3265 3272 3272 3265 3252 3237 3222 3211 3203 3195 3183 3168 3155 3146 3141 3145 3154 3165 3177 3188 3199 3211 3223 3234 3246 3259 3272 3285 3297 3313 3330 3347 3365 3382 3398 3410 3421 3433 3444 3456 3467 3478 3490 3501 3516 3532 3549 3558 3560 3561 3560 3556 3550 3540 3523 3508 3499 3495 3490 3486 3481 3477 3469 3462 3455 3446 3439 3429 3420 3410 3398 3386 3373 3359 3343 3325 3308 3288 3266 3251 3248 3254 3258 3264 3273 3284 3291 3293 3293 3286 3287 3281 3274 3263 3251 3239 3227 3216 3209 3208 3210 3218 3224 3230 3235 3239 3243 3243 3243 3241 3237 3232 3228 3220 3211 3202 3199 3200 3200 3217 3243 3265 3269 3264 3250 3232 3216 3202 3190 3178 3165 3150 3136 3120 3106 3099 3100 3100 3101 3102 3106 3107 3105 3098 3087 3079 3066 3051 3037 3025 3013 3001 2986 2970 2957 2949 2948 2954 2964 2977 2989 2999 3000 3004 3019 3036 3054 3072 3089
9999 2934 2956 2975 2987 2991 2983 2966 2945 2921 2893 2854 2812 2774 2760 2757 2774 2803 2827 2847 2864 2880 2894 2907 2921 2927 2947 2978 3000 3033 3067 3101 3141 3182 3217 3255 3274 3279 3277 3267 3252 3236 3222 3210 3202 3193 3179 3164 3149 3139 3135 3136 3142 3153 3169 3184 3196 3206 3218 3231 3243 3256 3269 3282 3294 3309 3327 3344 3360 3377 3394 3407 3419 3430 3442 3454 3465 3477 3487 3498 3513 3534 3552 3561 3562 3561 3555 3544 3532 3516 3498 3489 3481 3476 3471 3466 3461 3457 3450 3442 3436 3428 3421 3415 3404 3396 3386 3374 3360 3346 3331 3313 3293 3269 3246 3229 3225 3232 3237 3245 3256 3265 3270 3274 3276 3273 3276 3272 3266 3257 3246 3233 3221 3210 3202 3200 3204 3210 3216 3221 3226 3231 3233 3233 3232 3231 3227 3219 3213 3203 3186 3184 3194 3199 3200 3216 3239 3258 3262 3258 3245 3225 3209 3195 3183 3170 3158 3145 3130 3114 3100 3099 3097 3094 3092 3090 3092 3094 3091 3082 3070 3060 3049 3035 3020 3006 2993 2979 2963 2948 2937 2931 2933 2941 2953 2968 2983 2995 2999 3012 3028 3044 3060 3075 3092
9999 2963 2987 3004 3012 3012 3003 2986 2965 2941 2913 2876 2832 2797 2789 2786 2795 2821 2846 2869 2890 2909 2926 2941 2955 2963 2973 2991 2999 3029 3069 3108 3148 3188 3221 3254 3279 3285 3280 3268 3252 3235 3219 3208 3199 3188 3173 3157 3144 3135 3131 3132 3138 3148 3164 3178 3191 3202 3215 3227 3240 3254 3267 3280 3292 3306 3321 3338 3355 3373 3390 3405 3417 3428 3439 3450 3461 3472 3484 3496 3510 3530 3550 3561 3561 3554 3540 3525 3512 3496 3483 3473 3464 3457 3451 3445 3441 3436 3430 3422 3417 3410 3403 3399 3391 3383 3374 3362 3349 3334 3319 3303 3279 3253 3227 3209 3204 3211 3217 3226 3237 3242 3248 3256 3258 3260 3264 3261 3257 3249 3240 3229 3217 3205 3198 3196 3196 3202 3207 3212 3217 3222 3223 3223 3221 3220 3216 3207 3199 3180 3155 3155 3173 3194 3202 3218 3237 3252 3255 3248 3230 3212 3199 3189 3177 3164 3151 3138 3126 3112 3100 3093 3086 3081 3077 3072 3075 3077 3073 3065 3054 3043 3031 3018 3004 2988 2972 2958 2940 2924 2915 2914 2918 2929 2944 2961 2977 2991 3003 3018 3033 3048 3063 3079 3094
9999 2992 3012 3026 3034 3034 3023 3008 2986 2961 2933 2902 2859 2815 2799 2798 2815 2841 2866 2889 2914 2939 2958 2974 2988 2996 2998 3001 3001 3037 3077 3116 3159 3199 3226 3255 3281 3291 3282 3268 3251 3234 3219 3206 3195 3183 3169 3155 3142 3132 3127 3129 3136 3147 3160 3175 3189 3200 3212 3225 3238 3251 3264 3277 3289 3299 3316 3334 3351 3369 3386 3402 3413 3423 3433 3445 3457 3469 3481 3492 3505 3522 3542 3553 3552 3541 3525 3510 3498 3484 3469 3456 3448 3439 3432 3425 3421 3416 3411 3403 3398 3394 3388 3385 3379 3371 3362 3352 3339 3324 3309 3290 3264 3237 3212 3199 3194 3191 3199 3208 3218 3220 3229 3239 3243 3248 3250 3249 3247 3241 3233 3223 3213 3202 3188 3176 3172 3190 3199 3204 3209 3212 3213 3213 3211 3210 3205 3191 3169 3149 3124 3122 3144 3176 3203 3218 3236 3247 3249 3240 3222 3204 3195 3184 3171 3158 3145 3133 3120 3107 3092 3081 3071 3063 3058 3052 3058 3060 3056 3047 3038 3027 3014 3001 2986 2970 2954 2938 2921 2904 2897 2899 2905 2919 2935 2954 2973 2991 3004 3019 3035 3051 3067 3083 3098
9999 3016 3033 3048 3056 3055 3045 3030 3010 2986 2957 2925 2889 2846 2808 2804 2831 2863 2887 2913 2941 2968 2989 3007 3022 3033 3042 3041 3034 3060 3091 3127 3173 3211 3238 3264 3286 3296 3284 3268 3251 3234 3219 3204 3191 3179 3166 3153 3139 3129 3123 3125 3133 3145 3158 3172 3185 3197 3209 3222 3235 3248 3260 3272 3284 3296 3312 3330 3347 3364 3379 3396 3407 3418 3429 3440 3452 3464 3476 3488 3499 3513 3527 3536 3534 3522 3510 3498 3485 3471 3455 3441 3430 3423 3414 3406 3400 3397 3393 3387 3382 3379 3373 3370 3366 3359 3351 3341 3330 3316 3301 3278 3251 3223 3198 3187 3179 3171 3176 3188 3195 3201 3214 3223 3228 3234 3237 3237 3236 3233 3225 3216 3207 3195 3165 3144 3140 3161 3172 3187 3200 3203 3204 3203 3202 3199 3186 3162 3138 3119 3098 3093 3122 3173 3205 3219 3233 3241 3242 3233 3217 3202 3191 3179 3166 3152 3138 3125 3113 3101 3084 3068 3054 3043 3037 3035 3041 3044 3041 3031 3021 3011 2999 2983 2967 2952 2937 2920 2902 2889 2879 2883 2895 2909 2927 2947 2968 2987 3003 3018 3034 3051 3067 3083 3099
9999 3040 3058 3072 3080 3078 3070 3056 3038 3014 2985 2950 2914 2876 2842 2839 2858 2884 2911 2939 2967 2994 3017 3036 3054 3070 3084 3087 3087 3095 3100 3138 3189 3225 3255 3281 3299 3302 3287 3270 3253 3234 3216 3198 3186 3174 3162 3149 3136 3125 3119 3122 3130 3142 3155 3169 3181 3194 3207 3219 3231 3244 3256 3268 3281 3294 3308 3325 3341 3357 3374 3392 3403 3413 3424 3436 3447 3459 3471 3482 3493 3502 3510 3516 3514 3506 3496 3485 3473 3459 3444 3427 3414 3408 3397 3390 3384 3380 3377 3371 3367 3364 3359 3355 3352 3346 3339 3330 3320 3308 3289 3266 3243 3218 3191 3172 3161 3151 3152 3162 3168 3180 3197 3207 3214 3220 3223 3224 3224 3222 3217 3210 3201 3178 3143 3114 3109 3131 3146 3162 3175 3185 3190 3191 3185 3171 3157 3134 3108 3090 3078 3087 3131 3195 3208 3220 3230 3236 3236 3227 3212 3200 3190 3177 3163 3149 3135 3122 3109 3095 3074 3056 3037 3025 3018 3018 3024 3028 3025 3016 3005 2994 2982 2966 2950 2934 2919 2903 2888 2873 2863 2869 2885 2902 2922 2943 2963 2983 3002 3017 3033 3049 3065 3080 3095
9999 3059 3083 3097 3103 3101 3097 3086 3068 3043 3012 2978 2940 2899 2875 2877 2889 2904 2933 2962 2991 3016 3039 3062 3082 3103 3119 3126 3131 3137 3141 3166 3203 3238 3271 3300 3310 3305 3289 3269 3247 3227 3208 3193 3181 3168 3156 3144 3132 3121 3114 3118 3127 3139 3151 3164 3178 3191 3204 3216 3229 3241 3253 3265 3277 3289 3301 3318 3335 3353 3370 3386 3399 3409 3420 3431 3443 3455 3467 3477 3486 3493 3498 3500 3500 3495 3487 3475 3462 3448 3433 3417 3401 3396 3386 3376 3368 3363 3360 3355 3352 3349 3345 3340 3337 3333 3326 3319 3310 3298 3278 3255 3232 3208 3185 3163 3143 3131 3128 3135 3141 3155 3170 3185 3200 3206 3211 3212 3212 3211 3208 3202 3188 3159 3125 3099 3095 3103 3121 3137 3151 3159 3163 3164 3158 3143 3129 3108 3079 3052 3060 3091 3145 3200 3207 3215 3224 3228 3228 3224 3214 3202 3191 3178 3163 3149 3134 3120 3107 3096 3073 3048 3028 3010 3001 3002 3007 3012 3010 3002 2990 2976 2964 2951 2935 2917 2901 2886 2868 2851 2847 2858 2882 2903 2923 2943 2963 2983 3002 3017 3031 3045 3060 3077 3092
9999 3075 3100 3112 3121 3122 3118 3111 3097 3072 3041 3007 2969 2926 2898 2896 2899 2922 2955 2984 3011 3035 3058 3082 3107 3129 3149 3163 3174 3184 3190 3197 3222 3254 3287 3310 3321 3310 3289 3265 3241 3218 3198 3187 3175 3162 3149 3138 3127 3116 3110 3114 3123 3134 3146 3160 3174 3187 3200 3212 3224 3236 3248 3260 3272 3284 3297 3314 3331 3345 3361 3375 3391 3405 3416 3427 3438 3450 3460 3469 3478 3485 3492 3496 3497 3491 3482 3471 3457 3441 3427 3409 3399 3389 3377 3364 3353 3347 3342 3339 3336 3333 3330 3325 3322 3319 3313 3306 3298 3283 3265 3245 3222 3199 3176 3151 3129 3113 3106 3108 3114 3127 3140 3154 3171 3184 3195 3200 3201 3200 3198 3187 3168 3141 3110 3081 3072 3074 3098 3115 3128 3133 3137 3137 3132 3117 3101 3076 3037 3028 3058 3096 3159 3201 3206 3212 3216 3219 3218 3215 3209 3203 3192 3178 3164 3148 3133 3119 3105 3090 3069 3045 3021 3000 2983 2978 2987 2993 2992 2984 2974 2960 2947 2934 2920 2904 2886 2865 2844 2832 2836 2856 2880 2902 2922 2941 2960 2979 2998 3012 3026 3042 3058 3072 3082
9999 3091 3112 3127 3139 3143 3139 3130 3117 3101 3071 3038 3001 2962 2924 2903 2913 2942 2977 3006 3030 3054 3077 3100 3127 3153 3175 3196 3209 3219 3223 3225 3243 3274 3303 3327 3334 3313 3289 3262 3236 3212 3193 3180 3168 3157 3143 3131 3120 3111 3104 3109 3117 3129 3141 3155 3168 3181 3194 3207 3218 3231 3243 3256 3269 3282 3294 3307 3320 3336 3352 3368 3384 3400 3411 3422 3433 3443 3453 3462 3471 3478 3487 3493 3495 3490 3480 3468 3454 3439 3424 3409 3396 3383 3369 3354 3341 3331 3326 3322 3320 3318 3314 3311 3307 3304 3300 3289 3279 3266 3251 3233 3212 3190 3166 3142 3118 3099 3082 3081 3088 3098 3109 3122 3136 3149 3161 3168 3176 3176 3174 3169 3154 3131 3100 3062 3039 3037 3056 3088 3103 3106 3111 3110 3106 3089 3064 3030 3010 3028 3080 3124 3185 3202 3207 3211 3213 3213 3212 3209 3205 3200 3196 3181 3166 3150 3134 3118 3103 3083 3062 3041 3019 2997 2969 2951 2954 2959 2969 2965 2956 2944 2931 2917 2904 2892 2876 2853 2832 2823 2827 2848 2880 2902 2921 2941 2960 2979 2998 3009 3023 3038 3050 3061 3067
9999 3105 3125 3143 3157 3164 3162 3149 3137 3121 3103 3072 3034 2996 2959 2934 2939 2965 2996 3023 3050 3075 3098 3124 3149 3176 3200 3219 3235 3246 3254 3257 3269 3292 3318 3345 3344 3317 3289 3259 3230 3204 3188 3175 3162 3149 3138 3125 3114 3105 3098 3103 3111 3122 3135 3148 3161 3175 3188 3201 3214 3227 3240 3253 3265 3276 3287 3298 3313 3330 3347 3363 3378 3394 3406 3416 3426 3436 3445 3454 3462 3472 3482 3490 3494 3489 3481 3469 3454 3438 3423 3408 3394 3378 3361 3344 3329 3317 3310 3306 3304 3303 3299 3292 3286 3281 3274 3266 3257 3247 3235 3219 3201 3178 3154 3130 3107 3080 3055 3052 3061 3072 3082 3092 3101 3114 3126 3136 3144 3146 3152 3149 3137 3121 3094 3048 3011 3000 3013 3039 3059 3069 3078 3077 3066 3049 3028 3007 3013 3057 3104 3152 3200 3204 3208 3211 3212 3212 3211 3208 3204 3201 3199 3184 3168 3151 3135 3118 3102 3082 3062 3042 3022 3001 2968 2936 2925 2930 2945 2945 2937 2926 2914 2901 2890 2879 2866 2846 2826 2818 2826 2848 2874 2900 2918 2938 2957 2976 2994 3006 3018 3030 3039 3045 3049
9999 3114 3136 3159 3176 3184 3180 3169 3158 3143 3124 3103 3067 3029 2990 2967 2967 2985 3012 3039 3064 3090 3122 3149 3174 3199 3221 3242 3259 3272 3283 3290 3298 3309 3337 3358 3348 3314 3285 3253 3222 3196 3182 3169 3155 3142 3130 3118 3107 3098 3092 3095 3103 3115 3129 3143 3156 3170 3184 3198 3211 3224 3236 3247 3258 3270 3282 3295 3310 3325 3341 3356 3371 3386 3399 3409 3420 3429 3437 3446 3455 3467 3478 3488 3492 3490 3483 3471 3457 3440 3424 3411 3398 3376 3355 3335 3318 3304 3292 3281 3275 3273 3267 3262 3257 3254 3249 3241 3233 3226 3217 3203 3184 3163 3141 3117 3092 3059 3031 3022 3034 3046 3059 3070 3080 3089 3095 3104 3112 3116 3129 3129 3120 3108 3080 3037 3000 3000 2999 3000 3014 3028 3040 3041 3027 3007 2996 2999 3025 3079 3126 3175 3201 3206 3209 3212 3213 3213 3211 3208 3205 3202 3200 3186 3169 3152 3136 3119 3103 3084 3064 3044 3024 3005 2976 2939 2919 2914 2922 2923 2917 2908 2897 2888 2877 2864 2851 2837 2821 2816 2830 2853 2876 2895 2914 2932 2951 2969 2986 3000 3010 3018 3024 3029 3028
9999 3119 3145 3168 3191 3200 3199 3191 3180 3166 3146 3123 3100 3063 3016 2992 2991 2999 3029 3059 3084 3110 3143 3176 3201 3220 3242 3264 3283 3297 3309 3319 3327 3337 3357 3367 3347 3309 3278 3246 3213 3191 3176 3162 3148 3135 3123 3110 3099 3088 3081 3085 3097 3110 3124 3138 3152 3166 3180 3194 3206 3218 3230 3242 3254 3266 3278 3290 3303 3318 3334 3349 3363 3377 3391 3403 3413 3421 3429 3437 3449 3462 3475 3485 3490 3490 3485 3475 3461 3445 3428 3412 3398 3372 3345 3319 3298 3289 3269 3250 3239 3235 3234 3230 3228 3226 3222 3215 3209 3203 3195 3182 3164 3144 3125 3105 3076 3042 3009 2999 3009 3024 3038 3050 3061 3070 3078 3085 3089 3095 3106 3109 3103 3092 3063 3025 2999 2996 2991 2986 2982 2990 3003 3006 2990 2962 2971 3001 3047 3095 3141 3187 3203 3208 3213 3217 3217 3214 3213 3210 3207 3203 3200 3190 3172 3153 3135 3117 3099 3081 3062 3044 3026 3009 2992 2964 2933 2911 2907 2904 2899 2897 2887 2875 2864 2853 2835 2825 2815 2816 2831 2851 2872 2891 2909 2928 2948 2963 2979 2991 3000 3006 3010 3010 3006
9999 3120 3149 3176 3200 3200 3204 3206 3204 3188 3167 3144 3122 3100 3055 3020 3005 3024 3049 3080 3109 3140 3172 3203 3224 3243 3262 3284 3307 3322 3334 3345 3362 3374 3376 3369 3338 3305 3273 3240 3208 3188 3171 3155 3141 3127 3114 3102 3089 3076 3068 3078 3091 3104 3118 3132 3146 3160 3174 3187 3201 3213 3225 3237 3249 3261 3273 3285 3297 3312 3326 3341 3355 3369 3382 3395 3405 3413 3421 3431 3444 3458 3472 3482 3488 3489 3486 3478 3465 3447 3428 3412 3401 3376 3346 3318 3298 3276 3249 3224 3209 3199 3199 3199 3196 3196 3194 3185 3178 3172 3165 3155 3140 3122 3104 3085 3058 3028 2999 2997 2997 3004 3018 3031 3043 3053 3062 3069 3073 3082 3089 3091 3088 3075 3048 3015 2993 2982 2972 2962 2955 2956 2964 2964 2933 2933 2982 3023 3067 3110 3150 3190 3205 3212 3218 3223 3223 3218 3215 3213 3209 3205 3201 3189 3172 3154 3135 3117 3099 3081 3064 3048 3033 3019 3004 2982 2954 2925 2903 2900 2898 2890 2878 2865 2852 2841 2828 2811 2808 2812 2825 2844 2867 2889 2909 2926 2942 2958 2974 2987 2996 2996 2994 2988 2981
9999 3124 3154 3183 3203 3212 3220 3225 3225 3211 3189 3167 3145 3121 3094 3066 3046 3051 3074 3101 3133 3166 3199 3222 3245 3266 3284 3306 3335 3350 3359 3371 3383 3388 3384 3364 3331 3300 3268 3235 3202 3184 3167 3151 3135 3120 3105 3092 3078 3064 3059 3069 3084 3098 3112 3126 3140 3154 3168 3182 3195 3208 3219 3232 3244 3256 3268 3280 3292 3305 3319 3334 3348 3361 3374 3385 3397 3405 3414 3425 3439 3454 3468 3479 3485 3487 3485 3478 3459 3439 3427 3415 3404 3382 3352 3323 3293 3267 3236 3209 3196 3177 3163 3156 3152 3151 3154 3149 3145 3140 3133 3125 3112 3099 3084 3063 3037 3010 2988 2982 2981 2984 2999 3013 3027 3037 3046 3053 3059 3068 3074 3075 3071 3060 3040 3009 2984 2966 2950 2936 2926 2922 2917 2916 2916 2952 3005 3043 3084 3121 3155 3189 3206 3216 3223 3228 3228 3223 3217 3214 3210 3206 3200 3186 3170 3153 3136 3119 3102 3086 3070 3054 3039 3023 3007 2987 2960 2932 2908 2899 2896 2885 2870 2855 2841 2828 2817 2804 2800 2805 2823 2844 2865 2885 2905 2921 2940 2960 2977 2985 2986 2979 2971 2960 2950
9999 3129 3159 3189 3212 3228 3240 3248 3250 3236 3213 3189 3167 3143 3122 3107 3093 3085 3101 3127 3158 3191 3217 3240 3263 3286 3310 3339 3367 3376 3383 3390 3393 3389 3379 3354 3318 3290 3260 3229 3198 3179 3162 3145 3128 3112 3097 3083 3069 3055 3049 3061 3076 3092 3106 3120 3135 3149 3163 3176 3190 3203 3215 3227 3240 3252 3264 3275 3287 3299 3313 3326 3340 3353 3366 3377 3388 3399 3409 3420 3435 3450 3464 3475 3482 3483 3479 3466 3454 3442 3430 3418 3406 3386 3355 3323 3294 3268 3242 3215 3189 3161 3132 3115 3107 3107 3113 3113 3111 3109 3101 3094 3086 3077 3065 3049 3027 2998 2970 2958 2954 2959 2975 2997 3011 3022 3031 3037 3046 3053 3059 3060 3054 3043 3027 3004 2977 2953 2933 2915 2902 2894 2898 2911 2948 2987 3025 3062 3100 3127 3156 3184 3203 3215 3227 3231 3231 3227 3219 3214 3211 3205 3200 3184 3168 3153 3137 3121 3105 3089 3073 3056 3041 3026 3011 2993 2967 2941 2916 2900 2893 2880 2864 2847 2831 2816 2804 2799 2799 2799 2817 2837 2859 2881 2903 2924 2946 2967 2979 2980 2971 2961 2948 2936 2920
9999 3124 3159 3192 3222 3245 3262 3273 3276 3264 3240 3215 3191 3168 3149 3131 3120 3117 3126 3152 3183 3211 3235 3258 3280 3305 3341 3373 3398 3400 3400 3395 3387 3376 3361 3340 3307 3280 3251 3222 3194 3175 3156 3138 3121 3104 3089 3075 3060 3046 3041 3054 3071 3088 3103 3117 3131 3145 3158 3172 3186 3200 3212 3224 3235 3247 3259 3270 3282 3293 3306 3320 3335 3347 3358 3369 3381 3394 3405 3415 3427 3440 3454 3467 3473 3475 3478 3468 3456 3444 3431 3418 3406 3387 3360 3333 3307 3278 3248 3216 3186 3151 3118 3099 3093 3081 3077 3075 3073 3074 3069 3066 3060 3054 3046 3033 3015 2991 2956 2933 2923 2930 2950 2973 2993 3007 3015 3023 3030 3039 3044 3044 3038 3028 3014 2992 2967 2942 2919 2899 2877 2872 2890 2920 2967 3008 3041 3074 3107 3132 3158 3182 3202 3212 3225 3232 3232 3228 3220 3214 3209 3204 3197 3183 3168 3152 3136 3120 3105 3089 3074 3059 3044 3029 3014 2999 2974 2951 2929 2907 2891 2876 2859 2840 2823 2808 2799 2798 2799 2799 2810 2832 2855 2879 2902 2928 2953 2969 2975 2968 2953 2941 2926 2914 2899
9999 3133 3170 3202 3231 3259 3281 3295 3302 3291 3268 3243 3217 3192 3170 3154 3145 3145 3152 3172 3201 3228 3254 3278 3301 3333 3369 3400 3403 3402 3399 3386 3372 3357 3340 3322 3297 3271 3244 3216 3190 3169 3149 3130 3112 3095 3080 3063 3047 3037 3035 3049 3067 3084 3100 3114 3128 3141 3155 3168 3182 3195 3207 3219 3230 3242 3254 3265 3278 3290 3303 3316 3328 3339 3351 3363 3375 3387 3397 3406 3418 3431 3444 3449 3457 3465 3473 3467 3456 3444 3433 3421 3408 3394 3367 3341 3314 3285 3253 3221 3190 3159 3126 3096 3076 3052 3036 3034 3032 3035 3036 3037 3033 3030 3025 3014 2999 2973 2943 2912 2897 2905 2925 2947 2969 2987 3000 3008 3016 3025 3029 3029 3024 3015 3000 2975 2949 2924 2902 2874 2851 2863 2896 2937 2981 3019 3053 3083 3110 3134 3157 3177 3191 3202 3213 3223 3227 3223 3216 3211 3207 3201 3193 3181 3167 3153 3138 3123 3108 3093 3078 3063 3048 3033 3017 3001 2980 2957 2934 2912 2892 2874 2856 2838 2820 2802 2796 2794 2794 2797 2801 2824 2848 2872 2897 2922 2952 2963 2963 2951 2935 2922 2906 2892 2878
9999 3150 3187 3221 3248 3276 3301 3305 3306 3303 3296 3273 3246 3215 3190 3177 3171 3172 3178 3187 3213 3243 3271 3297 3329 3362 3395 3404 3406 3402 3391 3376 3360 3343 3326 3309 3288 3263 3237 3210 3185 3163 3142 3122 3103 3088 3071 3053 3037 3026 3027 3038 3057 3078 3095 3109 3122 3136 3149 3163 3176 3189 3202 3214 3226 3238 3250 3262 3275 3286 3297 3308 3320 3332 3344 3356 3368 3377 3388 3400 3410 3419 3429 3439 3449 3458 3465 3466 3459 3451 3438 3422 3411 3400 3374 3346 3318 3288 3258 3228 3199 3167 3134 3102 3067 3029 3004 2999 2998 2996 3003 3007 3006 3005 3002 2992 2976 2954 2927 2900 2895 2895 2901 2926 2948 2966 2981 2992 3003 3011 3015 3015 3010 3002 2980 2954 2928 2904 2873 2838 2838 2870 2910 2960 3004 3030 3062 3095 3116 3134 3151 3167 3180 3193 3201 3206 3212 3212 3208 3206 3203 3197 3186 3175 3163 3151 3139 3125 3111 3096 3081 3066 3050 3034 3018 3002 2980 2959 2938 2918 2899 2881 2861 2841 2821 2802 2793 2789 2790 2794 2798 2815 2839 2864 2891 2915 2938 2947 2943 2931 2916 2904 2882 2858 2850
9999 3180 3208 3249 3276 3299 3313 3322 3325 3323 3317 3303 3274 3242 3214 3194 3191 3193 3195 3200 3228 3259 3289 3320 3354 3387 3403 3408 3406 3400 3383 3364 3347 3330 3314 3298 3278 3255 3231 3206 3179 3154 3132 3112 3094 3078 3058 3039 3025 3019 3021 3030 3048 3070 3089 3104 3117 3131 3145 3158 3171 3184 3197 3209 3221 3233 3245 3257 3269 3279 3290 3301 3312 3325 3338 3349 3358 3368 3380 3392 3402 3411 3421 3431 3440 3449 3455 3459 3457 3449 3437 3425 3413 3401 3375 3347 3318 3289 3261 3233 3204 3172 3138 3104 3066 3026 3001 2993 2979 2968 2968 2975 2974 2973 2972 2966 2951 2932 2908 2888 2879 2876 2886 2910 2932 2949 2963 2976 2989 2999 3002 3002 3000 2983 2955 2929 2905 2874 2836 2820 2845 2889 2931 2980 3016 3043 3070 3101 3115 3129 3145 3159 3171 3181 3187 3191 3198 3201 3201 3200 3197 3190 3179 3169 3158 3147 3135 3124 3111 3100 3085 3069 3052 3036 3019 3002 2982 2962 2943 2924 2905 2885 2865 2844 2824 2803 2793 2788 2788 2792 2796 2801 2826 2854 2885 2908 2924 2925 2916 2905 2888 2875 2846 2826 2838
9999 3218 3237 3277 3305 3316 3329 3341 3347 3347 3339 3324 3299 3270 3243 3216 3199 3199 3200 3215 3247 3280 3312 3346 3379 3404 3408 3407 3404 3395 3376 3356 3337 3319 3302 3284 3265 3245 3223 3199 3171 3143 3118 3098 3085 3066 3047 3031 3019 3015 3016 3025 3041 3063 3084 3101 3114 3128 3141 3154 3166 3179 3191 3204 3216 3228 3239 3250 3262 3272 3282 3294 3306 3319 3330 3339 3349 3360 3371 3381 3393 3404 3413 3422 3431 3439 3444 3453 3452 3447 3436 3424 3410 3397 3371 3345 3318 3290 3262 3233 3205 3173 3141 3109 3074 3037 2997 2978 2956 2937 2932 2939 2941 2940 2942 2939 2927 2909 2889 2865 2849 2846 2866 2899 2919 2935 2949 2963 2974 2983 2983 2977 2970 2953 2926 2901 2873 2837 2810 2819 2863 2908 2951 2995 3024 3052 3080 3099 3111 3125 3139 3151 3161 3167 3171 3175 3181 3186 3189 3188 3185 3179 3172 3162 3152 3142 3131 3120 3110 3101 3086 3070 3053 3036 3020 3003 2984 2965 2946 2927 2909 2889 2868 2847 2825 2804 2794 2789 2788 2791 2796 2797 2814 2844 2872 2895 2906 2904 2892 2872 2851 2837 2816 2815 2836
9999 3252 3274 3302 3321 3336 3346 3361 3370 3372 3364 3347 3327 3300 3273 3246 3224 3213 3219 3241 3272 3304 3338 3371 3402 3417 3416 3406 3400 3384 3365 3346 3328 3309 3290 3270 3251 3232 3211 3187 3159 3131 3105 3091 3078 3063 3046 3029 3017 3011 3011 3021 3039 3060 3080 3098 3111 3124 3136 3148 3161 3173 3186 3199 3210 3222 3234 3244 3254 3264 3275 3289 3301 3311 3319 3329 3340 3350 3360 3370 3381 3395 3405 3413 3421 3428 3439 3442 3443 3441 3433 3422 3410 3392 3368 3343 3318 3291 3262 3234 3205 3175 3144 3113 3079 3038 2998 2968 2939 2914 2901 2904 2907 2907 2912 2911 2902 2887 2867 2839 2817 2820 2849 2884 2907 2923 2937 2949 2960 2965 2963 2952 2938 2921 2896 2867 2836 2808 2805 2833 2882 2920 2960 3001 3028 3055 3081 3100 3108 3120 3132 3140 3147 3151 3154 3159 3165 3171 3174 3174 3171 3167 3161 3155 3145 3136 3126 3116 3107 3100 3085 3068 3051 3034 3017 3001 2983 2965 2946 2927 2910 2894 2872 2850 2827 2805 2796 2792 2790 2791 2793 2796 2801 2824 2848 2866 2877 2864 2845 2830 2816 2805 2806 2820 2852
9999 3275 3301 3317 3336 3355 3365 3377 3390 3395 3390 3382 3361 3335 3302 3276 3257 3245 3249 3269 3296 3330 3363 3396 3420 3436 3426 3403 3388 3370 3351 3333 3316 3300 3280 3259 3239 3219 3199 3171 3145 3117 3096 3086 3074 3061 3046 3030 3017 3010 3008 3017 3035 3056 3075 3091 3106 3118 3131 3143 3156 3168 3180 3193 3206 3216 3226 3236 3246 3257 3270 3281 3291 3300 3310 3320 3330 3339 3348 3357 3369 3381 3394 3404 3411 3418 3423 3428 3431 3431 3427 3418 3407 3390 3367 3342 3318 3292 3264 3235 3206 3174 3140 3107 3072 3036 2999 2967 2933 2904 2889 2881 2875 2878 2882 2885 2879 2864 2844 2821 2799 2804 2835 2865 2893 2910 2924 2935 2943 2947 2944 2931 2912 2890 2860 2830 2805 2798 2821 2860 2897 2929 2964 3000 3025 3049 3072 3092 3104 3114 3121 3128 3133 3134 3136 3142 3149 3156 3160 3160 3157 3154 3149 3144 3138 3129 3120 3111 3103 3100 3082 3062 3044 3027 3011 2999 2980 2963 2945 2927 2910 2900 2882 2858 2833 2810 2797 2791 2786 2781 2778 2779 2787 2801 2818 2831 2829 2819 2799 2791 2787 2793 2804 2831 2864
9999 3296 3314 3332 3352 3370 3385 3395 3410 3422 3422 3414 3398 3374 3344 3310 3289 3278 3279 3296 3320 3354 3389 3419 3449 3449 3424 3398 3373 3352 3333 3318 3305 3294 3270 3247 3227 3208 3183 3154 3128 3102 3091 3082 3070 3058 3046 3031 3018 3010 3006 3013 3030 3050 3067 3083 3100 3113 3125 3137 3149 3162 3175 3187 3199 3208 3218 3228 3239 3250 3261 3271 3279 3289 3300 3310 3318 3326 3333 3344 3355 3367 3380 3392 3402 3406 3410 3415 3419 3418 3413 3407 3398 3382 3362 3338 3315 3290 3264 3235 3207 3173 3137 3101 3068 3035 3000 2969 2940 2913 2887 2862 2846 2843 2844 2859 2858 2844 2824 2801 2792 2797 2819 2848 2875 2897 2911 2920 2927 2929 2924 2912 2889 2855 2824 2797 2799 2805 2837 2875 2907 2935 2963 2994 3018 3041 3062 3079 3095 3105 3110 3115 3118 3116 3120 3126 3134 3142 3145 3146 3143 3140 3137 3132 3127 3121 3113 3106 3100 3089 3071 3054 3036 3019 3003 2993 2978 2960 2943 2926 2909 2899 2880 2858 2836 2814 2794 2776 2762 2751 2748 2752 2764 2779 2789 2792 2789 2779 2764 2758 2762 2783 2809 2838 2871
9999 3308 3326 3343 3361 3382 3401 3419 3435 3450 3454 3445 3429 3413 3388 3355 3330 3311 3310 3322 3345 3372 3404 3447 3468 3449 3413 3388 3363 3336 3315 3300 3301 3284 3261 3236 3213 3192 3166 3137 3109 3094 3085 3076 3067 3056 3043 3032 3020 3010 3005 3010 3024 3041 3057 3075 3092 3106 3118 3130 3143 3155 3168 3179 3189 3200 3210 3220 3231 3241 3251 3259 3267 3277 3288 3297 3304 3310 3318 3328 3340 3352 3364 3377 3387 3393 3401 3405 3404 3404 3399 3392 3384 3369 3352 3333 3310 3285 3259 3233 3206 3172 3133 3096 3064 3032 3000 2971 2944 2918 2892 2866 2837 2821 2820 2834 2836 2824 2806 2778 2763 2791 2818 2843 2863 2881 2897 2906 2911 2912 2905 2885 2855 2820 2789 2760 2795 2817 2848 2885 2914 2940 2966 2991 3013 3032 3047 3063 3076 3086 3099 3103 3105 3101 3104 3111 3121 3128 3131 3131 3128 3126 3124 3120 3114 3111 3106 3100 3091 3075 3057 3039 3022 3008 2993 2979 2966 2952 2937 2922 2907 2895 2878 2858 2837 2817 2796 2767 2741 2724 2719 2723 2741 2755 2762 2760 2755 2739 2726 2730 2756 2789 2817 2847 2877
9999 3314 3333 3351 3369 3388 3411 3439 3462 3478 3484 3476 3462 3446 3424 3400 3376 3355 3347 3353 3372 3396 3441 3478 3475 3444 3399 3375 3350 3325 3302 3299 3287 3270 3246 3222 3200 3174 3148 3122 3097 3087 3078 3070 3061 3051 3042 3030 3020 3010 3004 3005 3017 3031 3047 3065 3082 3098 3111 3123 3135 3148 3158 3168 3178 3190 3201 3211 3221 3231 3238 3245 3255 3265 3274 3281 3288 3294 3302 3313 3325 3337 3349 3361 3370 3380 3390 3397 3396 3395 3388 3379 3369 3359 3342 3324 3305 3281 3255 3228 3201 3164 3127 3091 3062 3032 3003 2978 2954 2931 2906 2881 2847 2822 2812 2815 2816 2807 2782 2742 2743 2782 2813 2832 2849 2864 2878 2890 2894 2887 2867 2846 2815 2778 2733 2738 2792 2827 2859 2891 2917 2941 2965 2985 3002 3016 3030 3042 3053 3063 3077 3086 3086 3087 3089 3096 3108 3114 3117 3117 3115 3112 3111 3107 3102 3098 3093 3085 3074 3060 3041 3022 3006 2988 2973 2959 2947 2938 2926 2913 2901 2890 2876 2859 2840 2821 2803 2772 2739 2709 2696 2704 2722 2728 2730 2727 2721 2712 2714 2728 2770 2800 2827 2855 2883
9999 3313 3333 3353 3373 3393 3418 3450 3480 3500 3503 3502 3495 3481 3463 3442 3420 3396 3383 3384 3395 3446 3489 3499 3473 3430 3396 3372 3348 3325 3301 3286 3271 3252 3231 3209 3184 3158 3132 3106 3092 3082 3073 3063 3054 3045 3036 3027 3017 3008 3002 3001 3009 3021 3036 3053 3070 3087 3103 3115 3128 3138 3148 3157 3168 3179 3190 3201 3211 3220 3225 3233 3242 3251 3258 3265 3271 3278 3287 3298 3310 3321 3333 3346 3356 3370 3382 3390 3391 3388 3381 3369 3355 3344 3335 3317 3297 3272 3248 3223 3196 3157 3118 3090 3065 3037 3013 2994 2975 2952 2927 2899 2873 2843 2814 2805 2800 2793 2753 2724 2726 2771 2800 2817 2832 2846 2857 2865 2862 2848 2822 2803 2776 2736 2711 2743 2799 2832 2864 2896 2919 2937 2954 2971 2985 2998 3010 3020 3029 3040 3051 3057 3062 3065 3073 3087 3098 3099 3102 3103 3101 3097 3096 3092 3086 3080 3076 3070 3059 3045 3028 3008 2986 2964 2948 2938 2926 2919 2911 2899 2893 2888 2881 2871 2855 2835 2812 2786 2748 2714 2697 2693 2697 2701 2700 2699 2700 2707 2724 2747 2787 2814 2839 2866 2894
9999 3309 3329 3349 3369 3390 3417 3450 3483 3504 3514 3515 3510 3504 3501 3489 3467 3445 3428 3402 3477 3501 3501 3496 3463 3424 3391 3366 3341 3315 3293 3275 3258 3237 3216 3196 3169 3142 3117 3096 3086 3077 3067 3058 3048 3039 3030 3021 3012 3004 2998 2993 2998 3009 3024 3041 3059 3077 3094 3107 3118 3128 3136 3145 3157 3168 3178 3190 3200 3206 3212 3221 3229 3235 3242 3248 3255 3263 3273 3284 3294 3306 3318 3331 3345 3361 3373 3382 3385 3382 3374 3362 3347 3331 3319 3312 3292 3268 3242 3218 3188 3144 3104 3091 3069 3047 3028 3014 3001 2979 2954 2926 2893 2864 2832 2804 2798 2778 2741 2720 2717 2749 2775 2799 2814 2825 2833 2836 2828 2813 2787 2766 2734 2703 2712 2760 2804 2835 2866 2896 2912 2924 2937 2950 2962 2972 2984 2996 3005 3015 3024 3031 3038 3047 3062 3080 3094 3096 3092 3085 3080 3075 3074 3071 3068 3063 3060 3054 3044 3031 3015 2994 2961 2939 2922 2915 2905 2896 2891 2883 2877 2878 2879 2875 2866 2850 2821 2794 2759 2723 2694 2678 2673 2679 2681 2686 2695 2716 2741 2770 2799 2825 2851 2878 2904
9999 3298 3317 3338 3359 3381 3407 3439 3471 3498 3522 3522 3521 3516 3510 3506 3503 3499 3496 3501 3505 3505 3501 3483 3451 3417 3388 3364 3340 3315 3291 3271 3249 3228 3206 3180 3154 3126 3101 3090 3080 3071 3061 3051 3043 3033 3024 3014 3006 2997 2983 2974 2982 2997 3013 3031 3049 3067 3083 3097 3108 3116 3124 3134 3146 3156 3166 3177 3186 3191 3199 3207 3213 3219 3225 3232 3239 3247 3259 3271 3282 3295 3306 3320 3338 3352 3365 3374 3378 3376 3369 3357 3342 3327 3313 3303 3294 3271 3245 3217 3185 3147 3119 3096 3079 3062 3049 3035 3021 3005 2982 2953 2915 2883 2851 2819 2798 2775 2746 2721 2711 2719 2742 2764 2787 2801 2808 2806 2797 2783 2759 2731 2701 2690 2709 2755 2802 2832 2862 2890 2902 2909 2918 2928 2938 2942 2952 2962 2972 2984 2999 3010 3020 3033 3054 3082 3094 3092 3076 3066 3058 3052 3052 3050 3049 3046 3043 3038 3030 3018 3003 2974 2939 2911 2898 2889 2881 2869 2866 2861 2857 2857 2863 2866 2862 2851 2825 2797 2761 2724 2693 2669 2656 2658 2666 2682 2698 2726 2757 2786 2810 2833 2858 2885 2911
9999 3276 3306 3326 3345 3368 3393 3419 3448 3477 3515 3515 3521 3521 3519 3516 3513 3510 3510 3510 3508 3503 3494 3469 3441 3410 3385 3362 3339 3315 3293 3271 3247 3224 3202 3168 3139 3111 3094 3084 3074 3064 3055 3045 3035 3027 3019 3009 2999 2982 2966 2957 2968 2986 3004 3022 3040 3056 3071 3084 3096 3102 3112 3124 3134 3142 3153 3163 3170 3176 3185 3192 3197 3203 3209 3215 3223 3233 3246 3259 3273 3288 3299 3316 3331 3345 3358 3367 3372 3372 3365 3355 3342 3329 3317 3306 3297 3278 3251 3221 3195 3171 3145 3118 3095 3083 3071 3056 3039 3023 3007 2978 2941 2908 2877 2842 2803 2778 2751 2719 2699 2697 2702 2719 2743 2764 2776 2777 2770 2754 2733 2705 2677 2673 2703 2755 2803 2829 2853 2875 2892 2900 2901 2908 2909 2912 2919 2926 2934 2944 2957 2984 3005 3026 3058 3086 3093 3084 3058 3045 3036 3030 3030 3028 3029 3028 3026 3021 3014 3004 2986 2957 2924 2898 2882 2863 2851 2843 2838 2836 2832 2834 2838 2845 2845 2836 2816 2791 2754 2717 2688 2659 2644 2649 2667 2690 2711 2738 2769 2799 2822 2845 2868 2891 2916
9999 3261 3287 3308 3327 3351 3375 3397 3426 3457 3488 3505 3514 3518 3519 3519 3517 3515 3513 3510 3504 3498 3480 3458 3432 3404 3381 3358 3336 3314 3291 3266 3241 3217 3193 3161 3127 3099 3088 3077 3067 3058 3048 3039 3029 3019 3011 3003 2990 2967 2947 2943 2953 2976 2997 3013 3029 3044 3059 3072 3080 3089 3101 3112 3120 3129 3139 3147 3153 3163 3171 3178 3183 3189 3195 3199 3209 3220 3234 3250 3266 3282 3296 3311 3326 3340 3353 3363 3368 3369 3365 3356 3346 3336 3328 3318 3308 3294 3274 3248 3223 3198 3174 3148 3124 3106 3089 3072 3056 3041 3022 3001 2966 2933 2903 2867 2824 2787 2759 2729 2702 2684 2676 2684 2707 2729 2743 2747 2745 2731 2709 2682 2649 2660 2702 2749 2786 2811 2832 2851 2862 2871 2869 2874 2874 2875 2883 2891 2899 2903 2917 2955 3000 3028 3065 3086 3089 3070 3039 3025 3015 3008 3008 3007 3008 3010 3008 3004 2999 2986 2968 2946 2920 2893 2869 2844 2823 2815 2810 2810 2808 2811 2814 2814 2813 2807 2798 2777 2741 2704 2675 2644 2635 2648 2679 2700 2726 2753 2781 2807 2830 2853 2877 2900 2926
9999 3227 3256 3284 3310 3332 3357 3381 3405 3436 3469 3494 3504 3509 3511 3511 3511 3509 3505 3501 3494 3483 3468 3451 3425 3399 3377 3354 3332 3310 3285 3259 3236 3211 3185 3152 3117 3094 3082 3070 3060 3051 3041 3032 3023 3013 3003 2991 2972 2951 2937 2934 2942 2960 2985 3003 3018 3035 3048 3058 3067 3077 3089 3098 3106 3114 3123 3131 3139 3149 3157 3164 3170 3179 3187 3196 3200 3211 3227 3244 3260 3276 3292 3306 3321 3338 3351 3361 3367 3369 3368 3364 3361 3356 3348 3340 3332 3321 3304 3281 3256 3230 3205 3179 3156 3132 3108 3089 3075 3058 3038 3016 2989 2957 2929 2898 2856 2808 2776 2746 2717 2694 2664 2650 2671 2694 2710 2718 2720 2709 2686 2647 2626 2642 2693 2733 2765 2790 2808 2820 2827 2834 2833 2834 2834 2835 2839 2861 2885 2899 2911 2954 3000 3030 3065 3083 3079 3053 3021 3005 2994 2982 2980 2979 2983 2987 2985 2981 2977 2967 2951 2932 2913 2892 2864 2834 2809 2797 2784 2775 2772 2780 2784 2786 2785 2777 2767 2749 2716 2688 2659 2629 2628 2653 2687 2712 2738 2765 2792 2813 2835 2859 2883 2906 2932
9999 3203 3231 3264 3294 3319 3344 3370 3395 3426 3458 3488 3497 3500 3501 3500 3500 3497 3486 3477 3474 3466 3455 3439 3423 3400 3378 3356 3333 3311 3285 3255 3226 3201 3177 3144 3110 3089 3076 3064 3053 3042 3032 3024 3015 3006 2996 2982 2965 2945 2930 2927 2937 2957 2978 2995 3011 3025 3036 3045 3053 3064 3073 3081 3090 3099 3108 3116 3126 3135 3143 3150 3158 3170 3181 3192 3199 3206 3223 3239 3257 3274 3291 3306 3320 3336 3350 3361 3368 3373 3377 3379 3379 3377 3372 3367 3363 3351 3333 3311 3288 3264 3239 3208 3181 3155 3131 3111 3094 3075 3055 3032 3010 2983 2953 2922 2887 2839 2795 2764 2736 2712 2682 2638 2630 2650 2674 2690 2694 2683 2662 2629 2615 2641 2685 2721 2748 2770 2785 2790 2794 2797 2796 2795 2795 2801 2806 2834 2870 2896 2929 2967 3005 3034 3065 3076 3059 3030 3006 2985 2970 2955 2948 2947 2954 2958 2956 2955 2955 2947 2934 2918 2903 2894 2868 2841 2816 2795 2764 2732 2727 2741 2749 2757 2756 2746 2735 2720 2694 2667 2632 2618 2625 2659 2694 2720 2745 2771 2794 2811 2831 2854 2877 2898 2925
9999 3200 3222 3257 3290 3318 3343 3367 3392 3423 3459 3486 3487 3478 3474 3469 3463 3457 3451 3450 3452 3448 3438 3425 3412 3396 3375 3353 3330 3308 3282 3253 3224 3196 3166 3136 3107 3086 3071 3057 3046 3036 3025 3014 3005 2997 2986 2972 2958 2940 2925 2922 2934 2953 2973 2988 3001 3013 3024 3032 3039 3048 3056 3064 3073 3083 3092 3103 3113 3122 3130 3137 3149 3162 3176 3188 3198 3207 3224 3242 3259 3276 3293 3307 3322 3337 3352 3362 3370 3377 3384 3390 3394 3395 3395 3394 3393 3381 3363 3341 3318 3297 3271 3237 3204 3178 3155 3135 3114 3094 3074 3052 3031 3005 2972 2940 2910 2866 2816 2779 2753 2726 2698 2653 2619 2617 2643 2662 2667 2655 2634 2613 2613 2644 2679 2707 2730 2748 2758 2760 2762 2762 2759 2758 2768 2790 2799 2828 2870 2907 2938 2971 3005 3035 3062 3067 3050 3019 2994 2969 2947 2930 2918 2918 2925 2929 2927 2929 2932 2928 2917 2905 2900 2892 2870 2847 2823 2798 2756 2710 2699 2705 2721 2729 2727 2716 2704 2692 2672 2643 2618 2612 2627 2666 2698 2722 2746 2769 2792 2802 2820 2835 2865 2891 2908
9999 3205 3234 3262 3291 3319 3347 3371 3394 3422 3465 3483 3478 3458 3447 3436 3425 3418 3417 3424 3430 3429 3422 3412 3401 3387 3367 3347 3327 3304 3277 3248 3219 3190 3162 3135 3107 3087 3069 3052 3038 3027 3018 3007 2996 2984 2975 2963 2949 2934 2921 2918 2931 2949 2965 2979 2991 3001 3011 3017 3024 3032 3039 3047 3057 3066 3077 3089 3100 3109 3117 3127 3140 3155 3171 3184 3196 3211 3228 3244 3261 3279 3296 3309 3324 3338 3350 3362 3372 3380 3390 3397 3407 3414 3414 3414 3413 3405 3391 3370 3346 3321 3295 3262 3230 3199 3177 3155 3134 3114 3095 3074 3052 3020 2986 2956 2924 2888 2837 2792 2765 2738 2710 2674 2628 2607 2617 2634 2640 2632 2612 2597 2610 2636 2664 2689 2709 2724 2729 2729 2730 2727 2721 2721 2744 2778 2800 2834 2875 2912 2943 2974 3003 3031 3055 3057 3037 3009 2981 2953 2929 2908 2897 2896 2896 2901 2899 2903 2908 2909 2903 2900 2898 2883 2865 2843 2821 2799 2761 2721 2693 2676 2692 2699 2698 2689 2676 2665 2645 2619 2606 2611 2633 2661 2693 2716 2732 2758 2786 2799 2803 2828 2858 2885 2899
9999 3210 3237 3264 3292 3320 3350 3379 3400 3427 3464 3476 3466 3440 3422 3407 3395 3390 3390 3399 3407 3411 3407 3402 3399 3382 3361 3340 3320 3299 3272 3243 3214 3186 3158 3130 3102 3084 3066 3049 3032 3018 3007 2999 2987 2974 2962 2952 2939 2927 2915 2915 2927 2942 2956 2969 2980 2989 2996 3001 3008 3015 3022 3030 3040 3050 3062 3074 3085 3097 3106 3119 3134 3150 3165 3180 3194 3211 3228 3246 3264 3281 3299 3311 3324 3337 3349 3362 3373 3383 3394 3404 3424 3433 3436 3437 3433 3421 3408 3385 3357 3333 3310 3284 3253 3222 3194 3172 3151 3131 3112 3097 3071 3036 3001 2969 2937 2906 2859 2808 2777 2749 2722 2693 2653 2616 2602 2610 2614 2607 2597 2593 2598 2620 2645 2668 2686 2697 2700 2700 2698 2699 2699 2699 2723 2770 2813 2848 2884 2916 2946 2975 3003 3027 3047 3045 3023 3001 2967 2937 2910 2889 2872 2866 2863 2866 2867 2872 2879 2883 2883 2885 2881 2870 2855 2838 2817 2793 2759 2725 2691 2648 2637 2656 2666 2661 2649 2635 2618 2604 2606 2619 2643 2666 2686 2701 2725 2755 2782 2799 2811 2838 2867 2889 2911
9999 3216 3243 3270 3297 3324 3352 3379 3402 3424 3453 3455 3437 3415 3399 3387 3377 3370 3369 3376 3385 3391 3394 3392 3383 3370 3351 3331 3311 3290 3263 3235 3208 3182 3154 3125 3098 3079 3062 3044 3027 3011 2997 2987 2977 2965 2951 2940 2928 2918 2909 2910 2921 2933 2946 2958 2968 2975 2981 2986 2992 2997 3004 3014 3024 3035 3047 3059 3072 3084 3098 3112 3128 3144 3161 3178 3195 3212 3230 3248 3266 3284 3301 3314 3326 3339 3351 3363 3374 3386 3396 3413 3438 3450 3457 3458 3451 3435 3412 3391 3368 3346 3323 3302 3272 3240 3207 3183 3161 3144 3127 3110 3085 3049 3011 2978 2948 2918 2881 2830 2789 2761 2734 2706 2671 2631 2602 2597 2590 2580 2573 2567 2582 2600 2622 2643 2657 2666 2668 2668 2674 2685 2694 2700 2724 2795 2828 2858 2889 2918 2947 2975 3001 3022 3035 3030 3010 2987 2954 2920 2893 2870 2849 2833 2827 2829 2835 2839 2848 2854 2856 2861 2860 2852 2840 2826 2810 2789 2761 2730 2699 2653 2620 2618 2633 2631 2623 2610 2601 2605 2620 2639 2670 2686 2697 2713 2741 2772 2796 2816 2836 2856 2889 2910 2927
9999 3216 3243 3269 3296 3322 3348 3373 3395 3415 3433 3427 3409 3393 3383 3371 3359 3350 3347 3353 3361 3368 3372 3373 3367 3354 3339 3320 3300 3278 3254 3226 3198 3174 3150 3124 3097 3075 3056 3038 3020 3003 2989 2976 2966 2955 2942 2929 2917 2907 2900 2903 2913 2924 2937 2946 2954 2960 2964 2970 2976 2982 2990 2998 3008 3020 3033 3047 3061 3076 3093 3110 3127 3145 3163 3181 3198 3216 3234 3252 3270 3287 3304 3316 3328 3340 3353 3365 3377 3389 3400 3424 3453 3471 3472 3469 3459 3442 3421 3401 3380 3358 3335 3312 3285 3250 3214 3188 3170 3152 3134 3116 3100 3062 3021 2985 2957 2928 2899 2847 2801 2773 2747 2719 2687 2645 2614 2593 2571 2551 2543 2538 2555 2579 2600 2613 2625 2635 2633 2636 2648 2665 2682 2697 2749 2802 2831 2860 2888 2915 2943 2970 2997 3013 3023 3015 3000 2973 2942 2910 2883 2855 2829 2808 2800 2800 2802 2808 2818 2824 2828 2835 2837 2832 2822 2811 2798 2778 2755 2730 2703 2673 2632 2612 2607 2604 2599 2595 2599 2619 2643 2666 2692 2710 2723 2747 2776 2801 2819 2839 2858 2879 2903 2926 2946
9999 3215 3242 3269 3295 3319 3342 3365 3382 3395 3400 3398 3392 3380 3367 3355 3341 3331 3326 3329 3338 3346 3350 3352 3349 3340 3325 3309 3288 3266 3244 3220 3193 3168 3144 3121 3096 3073 3051 3031 3011 2995 2982 2968 2955 2944 2932 2920 2906 2896 2890 2894 2904 2915 2925 2933 2940 2944 2948 2954 2961 2968 2977 2986 2996 3008 3023 3038 3055 3074 3092 3110 3128 3147 3165 3183 3201 3219 3236 3254 3271 3288 3303 3316 3330 3342 3355 3367 3380 3392 3415 3447 3473 3485 3482 3472 3459 3445 3426 3406 3387 3364 3340 3318 3294 3258 3223 3193 3175 3158 3140 3124 3107 3076 3032 2992 2964 2935 2906 2862 2822 2791 2761 2728 2695 2662 2630 2598 2571 2547 2530 2521 2527 2548 2575 2584 2595 2602 2600 2608 2623 2646 2674 2702 2754 2802 2830 2856 2882 2908 2933 2958 2984 3003 3010 3004 2989 2966 2939 2911 2884 2854 2825 2798 2799 2790 2779 2778 2789 2795 2802 2811 2814 2812 2804 2793 2780 2762 2742 2720 2696 2668 2637 2610 2596 2582 2579 2587 2600 2638 2666 2689 2707 2727 2748 2769 2797 2819 2840 2860 2880 2900 2916 2936 2959
9999 3214 3239 3264 3289 3312 3333 3356 3372 3382 3385 3383 3378 3367 3354 3340 3326 3313 3305 3307 3316 3324 3329 3331 3330 3324 3313 3297 3277 3256 3234 3211 3187 3162 3138 3114 3091 3067 3044 3021 3001 2988 2974 2961 2947 2934 2922 2910 2897 2883 2877 2882 2894 2903 2912 2919 2923 2927 2932 2939 2945 2955 2966 2978 2991 3000 3017 3035 3054 3073 3091 3110 3128 3146 3164 3182 3200 3218 3238 3257 3274 3291 3304 3317 3330 3343 3356 3368 3381 3394 3459 3487 3489 3489 3481 3463 3444 3432 3416 3400 3382 3361 3339 3318 3299 3268 3232 3198 3181 3163 3144 3126 3108 3077 3038 2998 2969 2940 2911 2878 2843 2802 2769 2737 2707 2676 2646 2616 2590 2567 2536 2516 2509 2519 2545 2553 2563 2569 2570 2583 2608 2638 2674 2710 2754 2793 2820 2844 2868 2892 2916 2941 2965 2986 2999 3000 2986 2965 2939 2912 2884 2855 2826 2800 2792 2773 2755 2747 2757 2764 2775 2785 2790 2791 2784 2773 2759 2743 2725 2706 2681 2655 2627 2601 2579 2564 2569 2589 2615 2656 2691 2702 2715 2737 2762 2786 2809 2830 2852 2874 2896 2915 2933 2951 2971
9999 3217 3240 3264 3288 3311 3331 3348 3360 3368 3370 3368 3363 3354 3341 3327 3313 3298 3284 3281 3292 3302 3307 3310 3311 3306 3297 3283 3263 3243 3222 3200 3178 3154 3130 3105 3082 3059 3035 3012 2994 2980 2967 2954 2940 2926 2913 2900 2885 2868 2862 2868 2879 2890 2899 2904 2907 2911 2917 2924 2933 2945 2958 2973 2987 3000 3018 3037 3055 3073 3091 3109 3129 3149 3169 3188 3205 3222 3240 3260 3278 3296 3309 3321 3333 3346 3359 3371 3383 3396 3472 3489 3480 3474 3460 3444 3423 3411 3398 3384 3370 3354 3336 3317 3300 3270 3231 3198 3180 3163 3145 3126 3108 3076 3032 2993 2967 2943 2920 2895 2855 2812 2780 2751 2722 2700 2675 2647 2615 2587 2558 2528 2509 2504 2517 2523 2530 2535 2539 2563 2598 2633 2670 2702 2739 2774 2803 2826 2850 2874 2897 2920 2942 2963 2978 2989 2986 2972 2946 2916 2885 2856 2828 2798 2778 2752 2729 2718 2725 2734 2748 2758 2766 2769 2763 2753 2739 2723 2707 2686 2663 2639 2613 2588 2562 2553 2570 2595 2631 2676 2700 2703 2718 2743 2769 2794 2816 2837 2858 2879 2900 2922 2943 2963 2984
9999 3215 3239 3263 3286 3308 3324 3339 3349 3354 3356 3354 3349 3341 3329 3315 3301 3282 3263 3253 3260 3271 3276 3283 3286 3278 3271 3262 3248 3229 3209 3188 3166 3144 3124 3102 3078 3054 3029 3005 2989 2975 2961 2948 2934 2921 2906 2891 2872 2856 2849 2857 2861 2872 2882 2887 2889 2895 2903 2912 2924 2939 2954 2969 2985 2999 3018 3038 3056 3074 3092 3111 3131 3152 3172 3192 3211 3228 3246 3264 3281 3299 3312 3325 3338 3351 3364 3376 3387 3398 3431 3456 3443 3433 3422 3414 3403 3388 3374 3364 3352 3341 3327 3311 3291 3258 3223 3194 3177 3160 3143 3126 3108 3078 3033 2993 2970 2947 2924 2900 2864 2828 2794 2768 2742 2723 2706 2682 2652 2610 2584 2556 2527 2503 2497 2497 2498 2502 2512 2545 2588 2623 2655 2686 2717 2750 2779 2807 2831 2854 2876 2897 2919 2937 2954 2967 2980 2975 2956 2917 2884 2854 2823 2793 2767 2740 2712 2700 2700 2708 2721 2734 2744 2746 2741 2733 2719 2704 2684 2662 2638 2616 2596 2570 2544 2547 2573 2599 2640 2680 2698 2701 2718 2743 2770 2795 2815 2835 2855 2874 2894 2918 2943 2968 2993
9999 3211 3234 3257 3280 3302 3317 3328 3335 3339 3341 3340 3335 3327 3317 3304 3286 3265 3242 3228 3226 3235 3241 3248 3249 3245 3240 3235 3226 3212 3194 3173 3152 3130 3110 3092 3071 3048 3025 3001 2987 2973 2958 2944 2930 2916 2902 2885 2864 2846 2839 2836 2839 2845 2853 2862 2868 2877 2891 2905 2920 2935 2952 2969 2985 3001 3019 3037 3056 3076 3095 3114 3134 3154 3174 3194 3212 3230 3247 3264 3281 3299 3312 3326 3340 3354 3368 3380 3391 3400 3403 3410 3406 3398 3389 3382 3371 3358 3347 3341 3331 3320 3312 3300 3275 3247 3215 3191 3174 3158 3141 3125 3108 3078 3033 2994 2970 2947 2924 2900 2865 2828 2800 2784 2764 2750 2733 2713 2691 2651 2610 2582 2548 2510 2488 2477 2475 2477 2493 2522 2567 2609 2639 2668 2696 2725 2754 2784 2810 2831 2853 2875 2895 2913 2927 2941 2961 2967 2955 2917 2885 2852 2819 2789 2760 2732 2705 2699 2694 2693 2697 2710 2722 2723 2718 2712 2701 2681 2659 2639 2615 2592 2569 2545 2533 2543 2569 2599 2635 2674 2699 2699 2717 2740 2765 2787 2806 2827 2849 2870 2892 2917 2945 2974 3001
9999 3207 3230 3253 3274 3293 3307 3317 3321 3324 3327 3326 3321 3314 3305 3291 3273 3251 3228 3206 3199 3198 3206 3212 3213 3211 3209 3207 3202 3189 3172 3155 3136 3116 3095 3077 3058 3037 3015 2996 2983 2970 2956 2942 2928 2914 2900 2882 2858 2840 2832 2829 2828 2830 2835 2843 2852 2864 2888 2907 2923 2939 2955 2971 2987 3003 3022 3040 3058 3075 3094 3113 3133 3153 3173 3193 3212 3230 3248 3266 3284 3301 3317 3333 3350 3365 3378 3389 3396 3397 3390 3381 3369 3357 3349 3345 3336 3325 3317 3315 3309 3300 3286 3275 3256 3231 3203 3186 3169 3153 3137 3121 3104 3073 3033 2996 2973 2949 2925 2901 2870 2841 2819 2803 2792 2778 2761 2740 2714 2680 2642 2606 2572 2522 2492 2471 2456 2453 2472 2497 2540 2586 2620 2649 2675 2700 2729 2758 2785 2809 2830 2851 2871 2889 2903 2916 2935 2946 2941 2914 2885 2850 2815 2784 2756 2729 2701 2688 2676 2667 2672 2686 2701 2702 2700 2688 2676 2657 2635 2614 2593 2564 2536 2524 2528 2555 2580 2597 2629 2668 2696 2699 2711 2733 2757 2780 2802 2828 2853 2877 2900 2925 2954 2983 3006
9999 3204 3225 3247 3265 3280 3295 3304 3307 3310 3313 3312 3307 3301 3290 3276 3259 3239 3216 3197 3185 3176 3176 3180 3180 3179 3178 3177 3171 3159 3144 3130 3114 3099 3084 3067 3049 3031 3010 2992 2978 2965 2952 2938 2925 2912 2898 2876 2853 2837 2827 2823 2823 2825 2829 2836 2846 2860 2886 2906 2922 2938 2954 2970 2986 3003 3022 3041 3060 3079 3097 3117 3137 3157 3177 3197 3215 3233 3250 3268 3285 3303 3324 3345 3364 3379 3390 3396 3396 3386 3367 3353 3334 3316 3309 3307 3301 3292 3284 3283 3275 3264 3253 3245 3228 3210 3192 3176 3161 3146 3130 3114 3097 3068 3036 3003 2978 2953 2928 2906 2887 2870 2854 2842 2829 2809 2788 2761 2732 2703 2667 2633 2596 2551 2507 2481 2453 2439 2446 2478 2511 2557 2601 2629 2655 2679 2704 2732 2760 2785 2807 2828 2847 2864 2879 2893 2906 2921 2921 2903 2876 2844 2809 2778 2751 2724 2697 2668 2646 2632 2640 2657 2675 2681 2674 2661 2649 2631 2610 2589 2562 2532 2515 2518 2537 2573 2598 2617 2641 2672 2696 2701 2717 2739 2762 2784 2807 2836 2866 2893 2916 2941 2967 2994 3012
9999 3203 3220 3235 3250 3263 3274 3279 3287 3300 3300 3294 3288 3281 3273 3262 3247 3228 3206 3180 3163 3150 3146 3149 3150 3149 3148 3146 3140 3127 3113 3100 3093 3084 3072 3056 3039 3021 3004 2990 2976 2963 2948 2934 2920 2907 2891 2872 2853 2835 2824 2819 2819 2821 2825 2832 2843 2862 2885 2906 2922 2938 2954 2970 2986 3003 3022 3041 3060 3079 3098 3118 3138 3158 3178 3198 3215 3232 3250 3267 3284 3302 3323 3351 3374 3389 3396 3398 3388 3365 3342 3325 3304 3284 3275 3270 3265 3256 3247 3243 3235 3224 3217 3213 3199 3188 3177 3164 3150 3136 3121 3106 3088 3064 3038 3010 2988 2971 2953 2935 2917 2903 2891 2884 2870 2849 2813 2782 2753 2723 2691 2656 2620 2580 2535 2495 2465 2435 2428 2452 2488 2526 2571 2611 2637 2661 2686 2713 2738 2761 2784 2806 2824 2842 2857 2871 2885 2896 2900 2885 2859 2830 2801 2774 2743 2715 2686 2652 2621 2605 2611 2631 2648 2652 2646 2633 2622 2605 2584 2555 2526 2509 2511 2531 2564 2593 2620 2645 2669 2693 2709 2723 2732 2759 2780 2798 2822 2849 2882 2911 2934 2958 2983 3003 3019
9999 3197 3209 3221 3233 3245 3250 3249 3250 3257 3257 3256 3259 3257 3252 3244 3234 3219 3198 3167 3140 3124 3117 3119 3118 3118 3117 3116 3109 3098 3090 3082 3076 3067 3057 3044 3028 3011 2995 2984 2972 2959 2945 2932 2917 2903 2887 2871 2853 2835 2822 2816 2816 2819 2824 2830 2847 2869 2888 2905 2921 2937 2953 2969 2984 2999 3018 3037 3057 3077 3096 3116 3135 3155 3176 3197 3215 3232 3249 3266 3284 3302 3323 3350 3376 3391 3396 3392 3372 3345 3321 3302 3280 3259 3243 3234 3228 3220 3212 3204 3196 3189 3185 3184 3174 3166 3157 3147 3136 3124 3111 3095 3077 3057 3035 3010 2997 2993 2988 2976 2956 2938 2921 2913 2904 2883 2846 2802 2771 2741 2711 2681 2647 2607 2564 2519 2485 2442 2419 2425 2461 2493 2536 2588 2619 2644 2670 2692 2714 2737 2759 2782 2804 2822 2836 2850 2864 2875 2878 2865 2840 2812 2787 2763 2738 2708 2676 2642 2609 2600 2599 2609 2621 2624 2618 2605 2591 2568 2550 2523 2505 2506 2525 2560 2590 2614 2641 2668 2693 2711 2726 2742 2757 2777 2802 2820 2840 2866 2893 2919 2945 2969 2994 3011 3028
9999 3187 3200 3206 3217 3223 3221 3216 3211 3212 3215 3222 3231 3232 3230 3226 3219 3208 3187 3155 3123 3101 3098 3096 3094 3093 3092 3090 3086 3080 3072 3064 3058 3051 3042 3030 3017 3001 2989 2978 2965 2952 2940 2927 2914 2901 2885 2868 2851 2834 2821 2813 2815 2818 2823 2834 2854 2874 2889 2905 2920 2935 2950 2965 2980 2996 3014 3034 3052 3071 3091 3111 3132 3153 3174 3195 3213 3230 3247 3265 3283 3302 3324 3350 3376 3391 3393 3385 3363 3335 3309 3284 3259 3236 3215 3202 3192 3185 3178 3172 3165 3160 3156 3155 3147 3142 3135 3128 3119 3108 3098 3081 3063 3047 3029 3007 2997 2994 2993 2986 2978 2967 2950 2937 2920 2904 2874 2828 2791 2762 2733 2706 2673 2633 2593 2545 2498 2460 2420 2411 2430 2468 2503 2554 2603 2629 2652 2671 2691 2713 2736 2758 2780 2801 2816 2830 2844 2855 2856 2847 2823 2797 2771 2749 2726 2701 2671 2637 2603 2598 2597 2591 2591 2592 2584 2564 2544 2521 2512 2507 2507 2518 2556 2588 2613 2639 2664 2691 2709 2725 2741 2758 2774 2792 2815 2839 2860 2882 2907 2931 2956 2980 3003 3019 3034
9999 3174 3184 3186 3196 3197 3190 3181 3172 3170 3176 3196 3209 3210 3211 3209 3205 3199 3174 3147 3116 3099 3092 3085 3079 3075 3073 3071 3066 3061 3054 3046 3040 3034 3026 3016 3003 2994 2984 2973 2961 2949 2936 2923 2911 2898 2881 2865 2848 2833 2819 2809 2813 2817 2824 2841 2859 2874 2887 2901 2916 2931 2947 2962 2977 2992 3008 3026 3046 3066 3086 3106 3127 3148 3170 3190 3209 3227 3245 3263 3281 3298 3318 3345 3371 3388 3391 3384 3361 3332 3308 3276 3242 3215 3190 3171 3158 3150 3145 3142 3133 3130 3129 3126 3119 3117 3111 3106 3099 3087 3075 3062 3046 3032 3017 2998 2983 2972 2965 2960 2957 2957 2950 2936 2919 2902 2877 2842 2809 2779 2751 2722 2691 2651 2612 2566 2519 2476 2432 2407 2409 2444 2482 2515 2571 2612 2631 2649 2669 2690 2710 2731 2751 2771 2794 2811 2823 2832 2833 2827 2809 2781 2755 2731 2710 2685 2657 2627 2598 2584 2569 2555 2548 2542 2534 2518 2499 2495 2499 2511 2529 2547 2585 2613 2638 2663 2689 2707 2722 2737 2753 2771 2789 2807 2828 2851 2874 2897 2920 2944 2969 2994 3020 3035 3039
9999 3157 3161 3162 3167 3164 3154 3144 3134 3128 3142 3168 3196 3202 3201 3200 3200 3186 3161 3138 3111 3092 3082 3072 3063 3059 3055 3052 3047 3041 3036 3028 3021 3016 3009 3000 2993 2986 2977 2967 2956 2945 2933 2920 2908 2900 2882 2861 2845 2829 2816 2806 2811 2817 2828 2843 2857 2871 2884 2898 2913 2928 2942 2957 2971 2985 3000 3021 3042 3064 3085 3106 3126 3145 3165 3186 3206 3223 3240 3258 3275 3294 3314 3338 3365 3385 3389 3381 3361 3333 3309 3273 3226 3194 3166 3141 3126 3116 3111 3110 3102 3100 3100 3096 3088 3088 3083 3077 3071 3061 3051 3039 3026 3013 3001 2982 2963 2942 2922 2914 2916 2921 2920 2913 2902 2896 2880 2851 2820 2791 2763 2734 2705 2668 2630 2593 2543 2495 2456 2415 2402 2429 2458 2485 2531 2579 2607 2627 2647 2667 2685 2702 2720 2740 2762 2784 2803 2809 2811 2807 2796 2768 2736 2712 2689 2665 2637 2610 2584 2560 2536 2516 2505 2498 2493 2487 2481 2486 2500 2521 2549 2576 2602 2634 2662 2688 2707 2720 2734 2750 2764 2779 2799 2823 2844 2864 2887 2910 2933 2955 2978 3002 3023 3035 3034
9999 3137 3138 3137 3136 3131 3118 3108 3101 3099 3117 3144 3173 3196 3200 3200 3195 3172 3147 3125 3104 3087 3070 3058 3047 3042 3037 3033 3029 3021 3016 3010 3002 2998 2994 2989 2984 2977 2969 2960 2951 2940 2929 2917 2906 2895 2878 2860 2842 2825 2812 2802 2807 2815 2827 2839 2853 2866 2879 2893 2907 2921 2936 2950 2965 2981 2997 3017 3038 3059 3080 3100 3118 3139 3160 3180 3198 3215 3234 3252 3271 3290 3309 3329 3351 3371 3386 3375 3355 3329 3306 3263 3213 3176 3144 3115 3097 3085 3077 3076 3068 3063 3060 3053 3050 3052 3049 3045 3041 3032 3024 3014 3003 2992 2977 2961 2941 2921 2901 2882 2881 2888 2889 2885 2883 2890 2888 2875 2842 2804 2775 2746 2717 2689 2653 2617 2574 2523 2478 2429 2398 2411 2435 2464 2496 2539 2575 2605 2625 2644 2660 2675 2690 2707 2725 2743 2762 2774 2783 2794 2794 2759 2720 2694 2669 2643 2616 2593 2571 2545 2517 2497 2483 2474 2466 2461 2466 2487 2510 2544 2573 2598 2623 2654 2686 2708 2721 2734 2747 2761 2777 2790 2807 2831 2857 2878 2900 2922 2945 2969 2992 3001 3012 3029 3027
9999 3116 3114 3110 3105 3097 3083 3071 3072 3082 3095 3118 3144 3166 3182 3186 3178 3160 3135 3109 3091 3077 3059 3044 3031 3025 3020 3014 3010 3003 2997 2993 2987 2984 2981 2977 2973 2968 2960 2952 2943 2934 2924 2914 2903 2889 2870 2853 2835 2818 2806 2797 2803 2811 2822 2834 2847 2860 2873 2886 2901 2915 2930 2945 2961 2977 2991 3008 3029 3049 3070 3092 3113 3134 3152 3170 3191 3211 3230 3248 3267 3285 3304 3325 3346 3367 3383 3366 3344 3322 3302 3252 3198 3165 3132 3100 3074 3057 3045 3039 3032 3025 3019 3008 3014 3015 3013 3012 3010 3003 2996 2987 2977 2967 2952 2936 2919 2900 2879 2856 2844 2847 2849 2846 2848 2862 2879 2877 2853 2813 2783 2756 2731 2707 2676 2641 2604 2553 2505 2448 2398 2399 2410 2440 2474 2510 2544 2575 2602 2619 2634 2649 2664 2678 2689 2699 2715 2731 2751 2788 2795 2763 2717 2684 2653 2625 2599 2584 2562 2537 2512 2491 2470 2455 2446 2447 2465 2493 2524 2558 2591 2622 2650 2678 2706 2730 2741 2749 2759 2772 2787 2803 2822 2842 2866 2890 2911 2932 2954 2977 2999 3000 3004 3012 3017
9999 3091 3087 3077 3066 3054 3042 3031 3035 3048 3067 3091 3115 3136 3152 3160 3157 3144 3124 3100 3081 3064 3047 3031 3017 3009 3004 2994 2990 2987 2981 2978 2972 2969 2967 2964 2961 2957 2951 2944 2936 2927 2918 2910 2901 2886 2867 2847 2828 2810 2798 2795 2798 2804 2815 2826 2839 2852 2866 2880 2894 2910 2926 2942 2956 2970 2985 3000 3022 3044 3068 3088 3106 3122 3141 3164 3186 3206 3223 3242 3261 3280 3300 3320 3341 3363 3380 3363 3342 3319 3298 3243 3193 3158 3124 3090 3060 3034 3016 3005 2996 2986 2977 2968 2973 2974 2972 2973 2974 2967 2962 2956 2949 2943 2928 2910 2895 2876 2854 2831 2810 2807 2808 2806 2812 2827 2849 2863 2851 2819 2793 2769 2743 2718 2699 2661 2621 2577 2528 2476 2418 2397 2391 2414 2448 2481 2514 2543 2570 2591 2607 2623 2637 2648 2658 2671 2689 2700 2733 2780 2791 2767 2721 2688 2656 2623 2599 2586 2563 2538 2514 2491 2462 2437 2433 2445 2468 2499 2539 2575 2607 2641 2673 2701 2724 2751 2761 2768 2774 2781 2791 2808 2832 2854 2877 2900 2920 2940 2961 2982 3002 3004 3002 3003 3006
9999 3061 3054 3040 3028 3013 3000 2995 3001 3017 3037 3062 3086 3108 3122 3133 3133 3126 3109 3092 3075 3056 3036 3018 3005 2993 2981 2964 2961 2967 2965 2961 2956 2954 2952 2950 2948 2945 2941 2935 2928 2920 2912 2904 2893 2877 2860 2841 2823 2804 2794 2790 2791 2797 2806 2818 2831 2845 2858 2874 2891 2906 2921 2935 2950 2965 2982 2998 3020 3044 3064 3084 3099 3113 3134 3156 3177 3197 3217 3236 3256 3276 3295 3315 3337 3358 3376 3360 3338 3316 3290 3241 3194 3157 3120 3083 3046 3014 2991 2973 2957 2944 2935 2929 2930 2929 2927 2930 2934 2930 2927 2924 2921 2918 2907 2889 2871 2854 2831 2808 2788 2775 2774 2775 2783 2798 2813 2830 2835 2815 2794 2770 2745 2721 2703 2679 2634 2589 2544 2501 2446 2395 2366 2388 2420 2453 2483 2512 2538 2559 2576 2595 2607 2617 2627 2647 2671 2694 2724 2768 2785 2770 2728 2696 2664 2635 2612 2590 2566 2538 2510 2484 2450 2427 2427 2449 2479 2506 2551 2594 2624 2656 2691 2714 2740 2761 2772 2779 2783 2788 2797 2813 2835 2859 2883 2905 2926 2946 2966 2987 3017 3031 3020 3007 3002
9999 3034 3024 3007 2992 2978 2965 2962 2971 2987 3008 3032 3053 3071 3091 3108 3112 3107 3096 3088 3073 3053 3032 3013 2998 2982 2962 2945 2937 2940 2947 2944 2940 2939 2938 2936 2936 2933 2930 2926 2920 2913 2906 2900 2886 2868 2851 2833 2815 2799 2791 2784 2785 2791 2798 2809 2822 2837 2853 2870 2885 2899 2915 2932 2949 2967 2984 3002 3021 3040 3059 3077 3095 3113 3133 3153 3173 3193 3213 3232 3252 3272 3291 3310 3332 3353 3372 3362 3337 3312 3281 3234 3190 3156 3121 3083 3040 3000 2970 2945 2923 2906 2895 2892 2891 2891 2889 2893 2896 2895 2894 2893 2893 2891 2884 2870 2851 2833 2812 2789 2767 2748 2741 2743 2755 2773 2787 2800 2807 2801 2783 2761 2739 2717 2702 2684 2644 2602 2560 2518 2470 2414 2361 2349 2391 2422 2452 2480 2506 2526 2540 2555 2570 2585 2604 2629 2657 2688 2719 2759 2777 2766 2733 2702 2674 2648 2625 2605 2577 2544 2511 2481 2444 2419 2422 2453 2489 2518 2554 2595 2629 2663 2696 2718 2741 2759 2768 2773 2776 2782 2792 2813 2837 2861 2885 2908 2929 2950 2971 2991 3029 3039 3030 3017 3005
9999 3009 2997 2977 2958 2943 2930 2928 2941 2961 2982 2998 3016 3026 3034 3059 3090 3081 3086 3083 3071 3053 3032 3014 3003 2988 2965 2942 2929 2922 2924 2928 2924 2924 2923 2922 2923 2921 2919 2917 2912 2906 2901 2896 2880 2863 2846 2828 2809 2796 2787 2780 2779 2786 2794 2802 2817 2832 2848 2865 2881 2897 2915 2933 2952 2970 2988 3005 3022 3040 3057 3074 3092 3111 3131 3152 3171 3191 3211 3230 3249 3268 3287 3306 3331 3358 3367 3362 3340 3313 3282 3231 3187 3154 3121 3083 3038 2995 2962 2929 2899 2882 2870 2864 2865 2864 2863 2867 2869 2868 2867 2866 2866 2864 2859 2847 2832 2814 2797 2778 2752 2724 2711 2713 2732 2748 2762 2775 2780 2775 2761 2741 2721 2709 2699 2676 2642 2606 2569 2533 2494 2435 2384 2331 2342 2388 2418 2446 2470 2488 2503 2515 2535 2560 2589 2619 2652 2687 2715 2748 2765 2760 2731 2703 2678 2656 2635 2615 2589 2552 2515 2480 2437 2413 2418 2456 2493 2526 2564 2596 2628 2657 2687 2709 2720 2736 2748 2753 2758 2770 2785 2807 2834 2861 2888 2911 2931 2951 2971 2990 3013 3027 3019 3008 2996
9999 2975 2962 2948 2930 2910 2897 2899 2916 2935 2955 2970 2982 2986 2987 3002 3041 3051 3073 3082 3074 3058 3040 3027 3015 3000 2980 2956 2938 2923 2913 2911 2909 2908 2908 2908 2910 2909 2908 2907 2904 2900 2899 2887 2873 2857 2840 2823 2806 2795 2784 2776 2776 2781 2792 2801 2817 2833 2849 2865 2882 2898 2917 2937 2956 2976 2994 3010 3027 3044 3061 3078 3095 3113 3133 3154 3174 3194 3212 3231 3250 3269 3287 3306 3330 3354 3363 3356 3335 3310 3278 3230 3188 3155 3122 3085 3040 2996 2960 2923 2891 2865 2846 2835 2837 2837 2837 2841 2842 2841 2840 2839 2839 2838 2833 2823 2810 2795 2788 2784 2752 2713 2699 2698 2708 2723 2736 2749 2751 2744 2732 2718 2701 2685 2667 2651 2629 2605 2571 2534 2496 2446 2404 2348 2315 2337 2382 2406 2421 2449 2470 2490 2515 2548 2583 2617 2651 2685 2710 2736 2751 2749 2729 2703 2683 2663 2642 2622 2602 2564 2519 2481 2438 2409 2413 2452 2494 2526 2560 2591 2612 2636 2662 2680 2693 2708 2722 2729 2740 2753 2773 2796 2824 2852 2881 2907 2926 2946 2965 2985 2999 3004 3006 2999 2978
9999 2937 2924 2914 2899 2881 2867 2871 2888 2909 2927 2942 2949 2954 2966 2983 3004 3030 3060 3084 3081 3069 3056 3042 3025 3010 2994 2975 2955 2936 2919 2905 2899 2892 2890 2889 2894 2893 2897 2898 2894 2892 2886 2877 2863 2849 2833 2816 2800 2791 2783 2775 2773 2780 2791 2801 2817 2834 2851 2868 2884 2901 2921 2940 2958 2978 2998 3016 3034 3051 3068 3085 3102 3120 3138 3158 3177 3197 3215 3233 3251 3269 3287 3305 3327 3351 3358 3351 3328 3306 3272 3229 3189 3155 3121 3084 3039 2996 2959 2925 2891 2859 2829 2811 2809 2810 2811 2816 2815 2814 2814 2813 2812 2812 2807 2797 2780 2766 2770 2781 2768 2719 2695 2686 2683 2697 2712 2722 2722 2716 2707 2697 2675 2651 2631 2616 2607 2577 2548 2522 2490 2454 2417 2375 2317 2316 2354 2374 2392 2421 2450 2477 2511 2552 2593 2624 2654 2680 2700 2714 2729 2734 2722 2700 2684 2666 2647 2629 2610 2578 2531 2489 2443 2407 2407 2447 2492 2516 2543 2567 2584 2603 2624 2643 2656 2676 2697 2709 2718 2735 2755 2782 2812 2840 2870 2903 2922 2942 2962 2982 3000 3000 2995 2981 2961
9999 2900 2889 2881 2867 2850 2835 2839 2859 2881 2899 2911 2918 2932 2951 2972 2994 3021 3055 3084 3089 3082 3070 3051 3036 3021 3004 2986 2967 2946 2926 2909 2891 2874 2862 2857 2860 2871 2877 2880 2877 2876 2872 2865 2853 2840 2826 2810 2797 2786 2775 2769 2771 2779 2790 2800 2817 2834 2850 2867 2883 2900 2921 2941 2962 2982 3002 3019 3037 3055 3073 3091 3108 3125 3143 3160 3177 3196 3213 3231 3249 3267 3285 3302 3323 3345 3353 3346 3324 3303 3267 3228 3190 3153 3116 3078 3039 3006 2972 2931 2890 2857 2824 2797 2796 2785 2779 2785 2784 2782 2779 2777 2776 2775 2767 2756 2742 2730 2727 2750 2759 2721 2685 2661 2647 2658 2679 2695 2701 2702 2700 2684 2657 2627 2604 2576 2559 2535 2506 2494 2479 2456 2426 2394 2343 2311 2325 2344 2374 2408 2450 2486 2522 2565 2606 2647 2676 2689 2691 2697 2707 2714 2706 2695 2681 2665 2648 2630 2612 2587 2540 2496 2453 2411 2409 2446 2487 2503 2520 2533 2549 2567 2590 2606 2618 2639 2660 2677 2694 2711 2733 2758 2794 2824 2859 2891 2912 2931 2954 2976 2999 2996 2981 2963 2944
9999 2874 2862 2850 2836 2819 2804 2809 2827 2851 2877 2898 2899 2920 2944 2970 2994 3029 3064 3090 3098 3093 3076 3063 3047 3030 3013 2994 2975 2956 2936 2916 2895 2868 2845 2836 2838 2849 2857 2861 2859 2859 2856 2852 2844 2830 2816 2803 2789 2777 2768 2767 2770 2778 2790 2800 2817 2834 2852 2869 2886 2904 2926 2947 2970 2990 3008 3025 3042 3059 3076 3094 3112 3129 3146 3164 3181 3199 3216 3233 3249 3266 3282 3298 3317 3339 3347 3341 3319 3300 3261 3222 3186 3152 3117 3081 3048 3014 2978 2933 2891 2857 2823 2799 2785 2765 2747 2743 2745 2743 2737 2732 2732 2731 2723 2712 2702 2693 2691 2703 2721 2709 2678 2638 2614 2617 2633 2656 2675 2687 2687 2680 2653 2619 2592 2549 2509 2499 2487 2467 2456 2442 2422 2395 2348 2305 2303 2326 2362 2400 2468 2510 2542 2582 2618 2660 2681 2682 2666 2661 2680 2692 2695 2693 2679 2662 2646 2629 2612 2590 2549 2509 2458 2413 2407 2434 2468 2484 2500 2499 2511 2534 2568 2593 2600 2605 2625 2650 2676 2695 2700 2728 2768 2810 2843 2872 2902 2923 2944 2982 3002 2993 2974 2951 2929
9999 2848 2837 2823 2807 2791 2788 2789 2799 2825 2857 2889 2899 2917 2942 2968 2993 3030 3073 3100 3103 3100 3088 3074 3058 3040 3022 3002 2983 2962 2942 2921 2900 2876 2845 2829 2823 2828 2838 2842 2841 2841 2840 2838 2833 2824 2809 2794 2775 2766 2763 2765 2772 2781 2790 2799 2817 2834 2852 2869 2887 2905 2927 2950 2973 2995 3013 3030 3047 3064 3081 3097 3114 3131 3148 3165 3182 3199 3216 3232 3248 3264 3279 3295 3311 3332 3342 3336 3317 3300 3260 3220 3183 3150 3118 3083 3046 3009 2972 2932 2892 2859 2825 2796 2775 2747 2723 2708 2711 2706 2697 2692 2690 2689 2680 2669 2660 2652 2652 2668 2688 2694 2667 2622 2600 2600 2600 2623 2642 2657 2667 2680 2669 2637 2601 2564 2527 2496 2473 2443 2423 2420 2406 2375 2325 2298 2298 2320 2370 2422 2487 2527 2561 2597 2628 2655 2654 2639 2622 2619 2645 2662 2682 2692 2681 2661 2642 2626 2610 2587 2553 2519 2457 2399 2398 2420 2443 2467 2494 2500 2499 2521 2554 2586 2599 2600 2614 2643 2672 2692 2699 2703 2749 2797 2824 2856 2891 2911 2934 2997 3005 2992 2971 2942 2917
9999 2822 2811 2796 2777 2765 2763 2771 2785 2807 2843 2879 2903 2925 2948 2972 2997 3035 3075 3102 3109 3106 3100 3086 3069 3051 3032 3011 2991 2971 2950 2929 2909 2888 2860 2837 2819 2815 2819 2823 2824 2824 2823 2823 2820 2814 2803 2785 2766 2760 2759 2764 2774 2784 2793 2799 2816 2833 2851 2868 2886 2904 2927 2950 2974 2996 3015 3031 3048 3065 3082 3099 3116 3133 3149 3166 3182 3199 3215 3231 3246 3261 3277 3291 3306 3323 3335 3332 3316 3300 3261 3221 3183 3148 3114 3082 3050 3018 2980 2935 2893 2862 2831 2800 2774 2744 2717 2699 2691 2677 2667 2662 2658 2650 2640 2626 2617 2611 2616 2638 2664 2682 2669 2622 2599 2594 2591 2593 2612 2629 2645 2670 2676 2655 2609 2573 2536 2497 2464 2427 2400 2396 2368 2335 2298 2286 2292 2326 2386 2441 2501 2535 2568 2599 2623 2632 2620 2602 2595 2598 2617 2640 2669 2688 2685 2668 2643 2621 2605 2580 2548 2516 2455 2395 2391 2398 2421 2460 2494 2504 2519 2526 2554 2582 2598 2603 2626 2650 2675 2694 2699 2710 2748 2794 2813 2848 2884 2896 2959 3004 3007 2993 2971 2938 2908
9999 2794 2778 2760 2741 2735 2740 2755 2776 2798 2835 2875 2908 2932 2955 2978 3002 3043 3084 3104 3113 3112 3104 3098 3081 3062 3042 3021 3000 2979 2959 2940 2919 2898 2876 2853 2830 2812 2804 2806 2808 2809 2809 2809 2808 2804 2793 2775 2760 2754 2755 2760 2772 2785 2793 2799 2816 2833 2850 2867 2885 2904 2927 2951 2974 2997 3015 3032 3049 3065 3082 3099 3115 3132 3149 3166 3182 3198 3213 3228 3243 3257 3272 3286 3300 3314 3327 3327 3314 3300 3259 3214 3177 3144 3110 3077 3044 3012 2973 2928 2889 2861 2832 2802 2776 2749 2721 2694 2671 2649 2629 2632 2627 2617 2603 2589 2579 2572 2587 2611 2633 2668 2678 2640 2594 2575 2558 2560 2580 2605 2623 2652 2665 2655 2617 2582 2545 2508 2469 2423 2391 2361 2324 2297 2282 2275 2291 2335 2400 2457 2506 2537 2567 2595 2607 2602 2588 2575 2573 2583 2600 2626 2659 2683 2685 2673 2648 2621 2599 2570 2541 2512 2450 2393 2378 2388 2416 2462 2498 2517 2536 2552 2567 2587 2603 2626 2649 2670 2689 2702 2720 2746 2779 2803 2827 2855 2882 2911 2984 3007 3008 2996 2976 2935 2896
9999 2755 2738 2721 2709 2711 2724 2747 2773 2797 2838 2880 2912 2935 2959 2982 3009 3049 3086 3104 3113 3116 3111 3104 3093 3072 3051 3029 3009 2990 2969 2947 2926 2905 2883 2861 2838 2818 2801 2797 2794 2799 2801 2800 2799 2798 2785 2770 2753 2749 2751 2758 2768 2780 2792 2799 2813 2830 2848 2866 2884 2903 2927 2950 2974 2997 3015 3033 3050 3068 3085 3102 3118 3133 3149 3164 3179 3194 3208 3223 3237 3251 3265 3279 3294 3306 3318 3321 3313 3300 3259 3215 3178 3144 3111 3078 3045 3011 2971 2926 2887 2857 2828 2799 2775 2748 2722 2696 2663 2630 2605 2600 2600 2593 2577 2558 2541 2531 2541 2574 2604 2642 2666 2637 2592 2548 2520 2520 2539 2567 2594 2612 2632 2642 2618 2587 2554 2522 2486 2437 2396 2353 2303 2278 2261 2266 2291 2343 2410 2466 2510 2538 2565 2581 2585 2567 2548 2539 2546 2567 2596 2620 2651 2676 2680 2669 2642 2613 2588 2561 2537 2507 2436 2383 2365 2384 2424 2478 2510 2529 2548 2567 2584 2602 2626 2651 2675 2695 2712 2734 2758 2785 2812 2829 2853 2879 2898 2924 2975 2998 3000 3003 2992 2956 2912
9999 2721 2700 2698 2699 2698 2722 2747 2771 2796 2838 2884 2915 2938 2962 2985 3013 3046 3078 3102 3110 3115 3115 3108 3100 3081 3061 3040 3015 2992 2971 2950 2929 2909 2888 2867 2845 2827 2809 2794 2780 2779 2786 2787 2786 2786 2776 2763 2747 2743 2747 2756 2767 2779 2789 2797 2810 2828 2847 2866 2884 2903 2926 2950 2973 2997 3015 3032 3049 3066 3082 3098 3114 3129 3145 3161 3175 3188 3202 3216 3231 3245 3259 3273 3287 3300 3309 3314 3308 3295 3255 3215 3177 3141 3106 3073 3042 3010 2972 2927 2888 2857 2826 2798 2777 2752 2726 2701 2671 2636 2605 2600 2598 2590 2565 2537 2513 2498 2500 2528 2562 2603 2633 2635 2603 2545 2498 2494 2496 2521 2552 2581 2605 2618 2612 2590 2561 2530 2503 2461 2416 2360 2296 2266 2250 2264 2292 2350 2419 2469 2508 2529 2547 2556 2559 2537 2510 2508 2525 2555 2589 2614 2638 2661 2669 2652 2629 2605 2573 2540 2514 2486 2413 2371 2354 2380 2426 2495 2519 2539 2559 2579 2597 2622 2649 2675 2698 2719 2738 2760 2784 2811 2836 2856 2878 2902 2922 2947 2974 2998 3013 3025 3013 2987 2942
9999 2688 2677 2689 2698 2699 2721 2748 2774 2800 2841 2883 2914 2938 2961 2984 3010 3041 3070 3096 3104 3111 3113 3109 3102 3091 3068 3042 3016 2994 2975 2955 2934 2913 2893 2874 2854 2836 2817 2799 2776 2758 2752 2750 2762 2769 2765 2754 2740 2736 2742 2753 2765 2777 2787 2796 2810 2828 2846 2864 2882 2899 2922 2946 2970 2993 3011 3028 3044 3061 3078 3097 3113 3128 3142 3155 3169 3182 3196 3210 3224 3238 3251 3264 3278 3292 3301 3306 3304 3291 3254 3215 3177 3138 3100 3068 3036 3004 2966 2926 2889 2857 2824 2800 2789 2768 2743 2719 2694 2663 2627 2600 2599 2593 2565 2531 2505 2482 2474 2489 2516 2559 2601 2614 2601 2558 2503 2475 2459 2487 2518 2546 2572 2594 2600 2592 2573 2544 2515 2480 2434 2379 2298 2265 2242 2258 2295 2356 2415 2463 2503 2515 2524 2529 2531 2516 2499 2500 2520 2554 2583 2609 2632 2653 2655 2636 2614 2590 2555 2519 2480 2435 2388 2347 2348 2388 2440 2504 2525 2546 2567 2587 2610 2637 2664 2692 2717 2739 2761 2782 2806 2831 2858 2880 2901 2920 2940 2960 2982 3007 3036 3044 3029 3005 2970
9999 2645 2648 2669 2691 2699 2721 2749 2776 2803 2843 2883 2915 2941 2968 2993 3019 3044 3066 3086 3099 3103 3106 3105 3101 3092 3071 3047 3024 3001 2980 2960 2938 2918 2898 2879 2863 2844 2825 2807 2785 2756 2737 2732 2736 2747 2750 2744 2732 2730 2737 2748 2760 2772 2783 2793 2806 2824 2842 2859 2877 2895 2917 2940 2963 2986 3005 3022 3039 3057 3076 3094 3109 3122 3135 3148 3162 3176 3190 3203 3216 3228 3241 3255 3269 3282 3294 3304 3300 3281 3247 3213 3175 3132 3094 3064 3034 3005 2966 2924 2890 2866 2840 2819 2804 2787 2766 2744 2721 2696 2665 2634 2606 2597 2570 2543 2514 2483 2451 2449 2480 2517 2564 2591 2584 2556 2514 2478 2435 2445 2482 2510 2537 2563 2583 2590 2583 2562 2526 2492 2445 2396 2326 2277 2234 2253 2300 2360 2413 2456 2497 2502 2505 2508 2508 2498 2501 2500 2523 2552 2578 2601 2623 2643 2640 2622 2602 2570 2534 2499 2451 2403 2360 2332 2356 2399 2458 2507 2528 2550 2571 2593 2620 2648 2674 2701 2727 2753 2777 2800 2824 2849 2876 2900 2919 2937 2957 2978 2996 3017 3048 3055 3041 3014 2994
9999 2607 2618 2646 2677 2701 2726 2751 2776 2800 2842 2882 2915 2942 2969 2995 3018 3039 3060 3078 3093 3097 3099 3098 3095 3083 3067 3046 3025 3004 2984 2962 2942 2923 2906 2888 2869 2851 2832 2814 2794 2762 2737 2725 2720 2724 2733 2732 2725 2724 2731 2742 2754 2766 2777 2789 2802 2820 2838 2855 2873 2891 2911 2933 2955 2977 2998 3016 3033 3050 3067 3085 3102 3114 3127 3141 3156 3169 3181 3194 3205 3217 3232 3247 3262 3277 3290 3301 3290 3270 3238 3206 3168 3128 3092 3064 3037 3009 2975 2937 2910 2887 2863 2844 2825 2808 2792 2773 2748 2719 2689 2659 2632 2602 2576 2548 2519 2490 2443 2423 2442 2485 2521 2548 2553 2531 2509 2491 2429 2417 2444 2476 2507 2534 2557 2585 2589 2572 2535 2501 2455 2408 2344 2284 2229 2244 2302 2356 2400 2437 2470 2491 2499 2500 2466 2471 2494 2500 2526 2549 2571 2592 2612 2628 2625 2609 2586 2551 2515 2473 2425 2380 2332 2328 2372 2418 2473 2511 2531 2553 2574 2595 2627 2659 2689 2714 2738 2764 2789 2811 2833 2857 2881 2905 2927 2949 2970 2991 3012 3039 3064 3063 3043 3018 3000
9999 2591 2608 2638 2671 2700 2724 2748 2771 2794 2832 2875 2911 2937 2965 2993 3015 3036 3056 3075 3088 3091 3090 3087 3085 3074 3060 3043 3023 3004 2984 2965 2946 2927 2908 2890 2870 2853 2836 2818 2799 2770 2748 2730 2719 2711 2714 2719 2717 2717 2724 2734 2746 2757 2772 2786 2799 2816 2834 2851 2869 2887 2906 2927 2947 2969 2990 3007 3022 3039 3056 3073 3091 3107 3121 3135 3148 3160 3172 3183 3195 3209 3225 3241 3260 3278 3290 3297 3284 3262 3237 3212 3178 3137 3100 3074 3047 3020 2990 2959 2931 2907 2885 2864 2842 2822 2806 2794 2765 2733 2701 2670 2639 2607 2580 2552 2525 2498 2451 2412 2416 2454 2490 2514 2521 2511 2502 2500 2458 2416 2415 2439 2474 2508 2533 2570 2584 2577 2542 2508 2470 2421 2359 2293 2230 2233 2300 2342 2378 2405 2429 2431 2412 2399 2403 2434 2479 2504 2526 2547 2567 2586 2601 2614 2612 2600 2570 2537 2503 2452 2398 2352 2317 2335 2389 2434 2484 2513 2533 2554 2574 2594 2629 2667 2701 2725 2749 2774 2799 2815 2837 2860 2882 2903 2925 2948 2971 2994 3023 3059 3074 3067 3046 3020 3000
9999 2587 2609 2638 2671 2701 2724 2749 2773 2794 2830 2869 2906 2934 2963 2992 3015 3034 3055 3075 3085 3084 3079 3074 3072 3063 3052 3038 3021 3004 2985 2966 2947 2928 2909 2894 2878 2860 2840 2820 2800 2781 2763 2744 2727 2717 2708 2706 2709 2711 2717 2726 2739 2754 2769 2783 2795 2811 2828 2845 2863 2880 2897 2917 2939 2960 2978 2994 3010 3026 3043 3061 3082 3101 3114 3126 3138 3149 3161 3175 3189 3204 3221 3241 3262 3281 3291 3293 3281 3258 3231 3209 3181 3148 3119 3090 3063 3036 3003 2972 2947 2924 2901 2877 2855 2835 2816 2800 2768 2734 2700 2670 2639 2609 2581 2556 2530 2505 2464 2410 2402 2423 2462 2490 2502 2502 2500 2500 2470 2417 2400 2402 2431 2473 2511 2542 2569 2570 2551 2519 2488 2434 2375 2306 2235 2223 2294 2327 2354 2373 2370 2373 2387 2394 2399 2436 2476 2504 2523 2541 2558 2573 2588 2600 2600 2581 2552 2518 2477 2423 2376 2326 2313 2354 2404 2447 2494 2517 2536 2555 2574 2593 2629 2675 2708 2731 2754 2777 2796 2815 2834 2853 2873 2894 2918 2941 2966 2990 3035 3070 3072 3064 3043 3018 2999
9999 2596 2621 2646 2676 2704 2729 2752 2776 2797 2821 2865 2906 2934 2963 2991 3014 3035 3059 3076 3080 3075 3066 3061 3057 3050 3041 3031 3019 3004 2990 2971 2951 2930 2911 2900 2881 2861 2841 2820 2800 2784 2768 2752 2737 2723 2712 2703 2700 2704 2711 2721 2737 2754 2766 2779 2790 2803 2821 2838 2855 2873 2891 2912 2932 2949 2965 2981 2996 3013 3032 3051 3071 3089 3104 3116 3128 3141 3155 3169 3183 3197 3214 3237 3263 3281 3290 3291 3280 3258 3232 3210 3197 3170 3140 3112 3085 3051 3013 2982 2957 2933 2909 2886 2863 2841 2819 2796 2765 2733 2701 2669 2637 2605 2579 2554 2529 2505 2459 2409 2398 2400 2433 2461 2483 2497 2496 2480 2446 2410 2400 2398 2399 2432 2483 2516 2545 2558 2550 2523 2500 2445 2387 2320 2251 2208 2257 2305 2324 2326 2311 2313 2339 2374 2401 2468 2514 2500 2516 2531 2545 2555 2568 2575 2573 2559 2536 2503 2448 2396 2346 2308 2322 2376 2417 2454 2498 2519 2538 2558 2577 2596 2639 2687 2717 2739 2761 2780 2794 2805 2821 2839 2859 2883 2908 2932 2956 2980 3004 3068 3044 3037 3019 3004 2990
9999 2605 2633 2658 2683 2709 2735 2759 2781 2798 2825 2864 2903 2931 2961 2990 3016 3041 3063 3073 3073 3062 3052 3046 3042 3036 3029 3021 3013 3004 2991 2972 2952 2932 2913 2896 2877 2858 2839 2820 2801 2783 2767 2752 2738 2724 2713 2703 2699 2700 2712 2725 2737 2750 2762 2774 2786 2797 2813 2831 2850 2869 2888 2904 2920 2937 2953 2969 2985 3000 3019 3038 3057 3075 3093 3107 3121 3135 3149 3163 3179 3194 3211 3233 3258 3275 3285 3288 3279 3259 3239 3223 3209 3192 3162 3133 3102 3063 3023 2988 2963 2939 2914 2889 2863 2838 2814 2787 2755 2722 2690 2659 2627 2596 2570 2547 2523 2497 2455 2414 2393 2384 2404 2431 2452 2467 2471 2461 2443 2416 2399 2393 2390 2394 2431 2495 2518 2534 2536 2523 2501 2449 2389 2332 2272 2208 2216 2260 2293 2298 2299 2303 2338 2373 2413 2496 2555 2520 2507 2519 2527 2534 2543 2546 2542 2531 2512 2484 2424 2373 2320 2303 2333 2390 2426 2461 2497 2518 2537 2558 2578 2598 2645 2694 2731 2755 2774 2785 2788 2792 2803 2821 2844 2871 2897 2920 2942 2967 2988 2999 3005 3006 2996 2988 2977
9999 2616 2644 2670 2696 2723 2748 2771 2792 2821 2855 2891 2916 2940 2965 2992 3016 3046 3063 3068 3062 3046 3037 3031 3027 3023 3018 3012 3007 3000 2987 2969 2951 2933 2915 2897 2878 2859 2839 2820 2800 2782 2764 2746 2733 2721 2708 2698 2694 2699 2710 2723 2735 2747 2759 2771 2782 2793 2804 2824 2844 2866 2886 2899 2914 2930 2946 2962 2977 2992 3009 3029 3047 3065 3083 3100 3114 3129 3145 3161 3178 3194 3211 3229 3249 3267 3281 3286 3280 3268 3252 3235 3218 3204 3179 3146 3114 3076 3028 2989 2962 2936 2910 2883 2854 2827 2803 2773 2742 2710 2677 2644 2613 2583 2556 2530 2509 2480 2437 2398 2373 2364 2380 2401 2421 2437 2445 2439 2427 2412 2391 2374 2371 2379 2390 2420 2481 2507 2512 2508 2490 2446 2392 2335 2275 2209 2201 2241 2271 2288 2298 2308 2347 2386 2435 2500 2513 2493 2494 2502 2506 2511 2517 2517 2511 2501 2482 2453 2398 2336 2299 2311 2357 2396 2428 2462 2496 2517 2537 2556 2576 2597 2656 2707 2738 2768 2779 2780 2772 2771 2784 2806 2830 2857 2882 2905 2929 2954 2972 2980 2986 2987 2980 2970 2961
9999 2627 2656 2683 2711 2740 2767 2790 2817 2854 2888 2915 2938 2960 2983 3002 3022 3045 3059 3059 3046 3029 3021 3018 3015 3011 3008 3005 3001 3000 2985 2967 2949 2930 2913 2895 2876 2856 2836 2816 2797 2779 2761 2742 2725 2709 2699 2689 2687 2698 2710 2722 2734 2745 2757 2768 2780 2791 2801 2821 2842 2864 2884 2901 2917 2932 2947 2961 2976 2990 3006 3024 3041 3058 3076 3093 3110 3126 3143 3160 3176 3193 3210 3229 3247 3273 3284 3284 3280 3270 3255 3239 3222 3208 3187 3156 3126 3093 3035 2988 2958 2929 2902 2874 2845 2816 2785 2756 2726 2695 2661 2627 2596 2565 2535 2511 2483 2444 2409 2387 2358 2341 2352 2374 2395 2409 2420 2419 2412 2404 2389 2356 2330 2320 2341 2369 2393 2436 2466 2478 2461 2426 2379 2328 2276 2218 2194 2221 2246 2268 2288 2313 2350 2386 2419 2439 2458 2470 2471 2476 2479 2481 2486 2485 2478 2466 2445 2420 2367 2299 2302 2328 2359 2389 2420 2452 2483 2509 2531 2554 2578 2606 2669 2713 2743 2765 2768 2756 2742 2746 2764 2790 2816 2842 2868 2894 2919 2941 2953 2962 2968 2970 2964 2953 2944
9999 2640 2670 2697 2727 2758 2787 2813 2842 2878 2913 2938 2963 2985 3003 3017 3037 3049 3050 3037 3026 3012 3008 3007 3004 3003 3002 3001 2999 2994 2979 2962 2945 2928 2910 2891 2871 2852 2832 2813 2794 2776 2758 2741 2722 2704 2689 2678 2682 2698 2710 2721 2733 2744 2756 2767 2779 2790 2802 2822 2841 2861 2881 2900 2916 2932 2947 2963 2978 2993 3009 3026 3042 3059 3075 3092 3109 3126 3142 3159 3176 3193 3209 3228 3250 3268 3281 3283 3277 3268 3255 3239 3222 3208 3189 3158 3128 3095 3037 2988 2954 2921 2890 2860 2833 2806 2771 2736 2707 2672 2637 2604 2579 2543 2515 2488 2456 2420 2397 2376 2345 2327 2322 2341 2361 2376 2398 2404 2401 2400 2389 2359 2322 2297 2299 2318 2341 2374 2403 2428 2424 2396 2360 2313 2265 2219 2194 2208 2235 2263 2288 2312 2349 2385 2404 2424 2440 2449 2449 2450 2449 2447 2449 2448 2443 2430 2407 2373 2290 2275 2294 2311 2343 2379 2406 2437 2470 2499 2524 2550 2575 2605 2670 2713 2740 2747 2742 2724 2712 2721 2745 2777 2805 2831 2856 2882 2908 2925 2936 2944 2950 2952 2947 2937 2927
9999 2653 2683 2717 2748 2778 2807 2835 2863 2893 2924 2953 2980 3004 3020 3032 3042 3046 3040 3016 3000 3000 3000 2998 2999 3000 3000 2999 2994 2982 2969 2955 2939 2923 2906 2888 2868 2849 2829 2810 2790 2772 2754 2736 2719 2701 2684 2670 2678 2697 2710 2722 2734 2746 2758 2769 2781 2792 2806 2825 2845 2864 2883 2902 2919 2935 2950 2965 2980 2995 3012 3029 3046 3062 3078 3094 3111 3127 3143 3159 3176 3192 3208 3225 3245 3265 3279 3281 3274 3263 3251 3237 3222 3209 3189 3156 3124 3087 3035 2986 2948 2911 2876 2844 2814 2786 2753 2716 2681 2637 2600 2598 2572 2529 2498 2490 2462 2427 2398 2382 2356 2327 2314 2315 2324 2334 2354 2379 2400 2400 2389 2363 2332 2304 2286 2279 2295 2327 2356 2384 2380 2365 2332 2293 2243 2203 2196 2212 2258 2291 2299 2306 2342 2382 2401 2412 2424 2431 2426 2423 2420 2414 2412 2412 2410 2392 2357 2299 2258 2268 2294 2314 2349 2382 2399 2423 2461 2496 2520 2554 2584 2616 2667 2703 2723 2720 2710 2700 2698 2705 2731 2763 2790 2815 2842 2871 2897 2912 2921 2927 2932 2934 2930 2920 2910
9999 2668 2694 2732 2770 2801 2826 2853 2881 2910 2941 2970 2995 3014 3029 3034 3035 3032 3026 3008 2999 2998 2995 2994 2992 2995 2989 2982 2974 2966 2955 2943 2930 2915 2899 2882 2864 2845 2826 2806 2787 2769 2750 2731 2713 2695 2674 2664 2674 2696 2710 2722 2735 2747 2760 2772 2784 2796 2813 2832 2851 2871 2889 2908 2925 2941 2956 2970 2985 2999 3017 3034 3050 3067 3083 3099 3114 3130 3147 3163 3179 3195 3208 3224 3244 3264 3278 3279 3271 3259 3245 3232 3220 3207 3188 3154 3120 3079 3024 2977 2937 2898 2858 2825 2794 2762 2732 2697 2665 2619 2600 2599 2590 2553 2519 2500 2482 2456 2428 2404 2382 2353 2330 2312 2302 2299 2311 2332 2351 2365 2363 2344 2322 2305 2284 2257 2255 2283 2306 2322 2328 2324 2303 2259 2214 2181 2181 2225 2283 2302 2311 2328 2358 2383 2398 2401 2409 2409 2403 2397 2382 2364 2357 2349 2345 2328 2297 2255 2252 2292 2321 2354 2382 2398 2408 2434 2474 2498 2522 2563 2599 2633 2670 2695 2700 2697 2683 2674 2681 2694 2721 2749 2776 2804 2834 2859 2882 2901 2907 2913 2916 2918 2914 2904 2888
9999 2682 2714 2751 2790 2818 2844 2871 2898 2925 2957 2989 3008 3019 3028 3032 3030 3021 3011 3003 2994 2986 2977 2970 2968 2967 2963 2957 2952 2948 2938 2928 2918 2906 2891 2874 2858 2840 2822 2803 2784 2765 2747 2728 2710 2691 2667 2657 2671 2694 2709 2722 2735 2747 2760 2773 2785 2798 2818 2837 2856 2876 2896 2916 2934 2950 2965 2979 2993 3007 3024 3040 3057 3074 3090 3105 3119 3133 3148 3164 3180 3195 3207 3227 3246 3264 3276 3277 3269 3256 3241 3227 3215 3205 3182 3147 3112 3071 3023 2974 2926 2880 2825 2800 2779 2741 2709 2698 2680 2643 2614 2612 2613 2601 2579 2556 2522 2490 2462 2434 2406 2384 2359 2326 2304 2296 2289 2292 2299 2316 2330 2318 2307 2300 2299 2281 2234 2232 2247 2276 2289 2287 2269 2227 2185 2154 2180 2242 2302 2325 2342 2365 2385 2384 2379 2376 2377 2371 2357 2344 2323 2298 2294 2285 2272 2262 2220 2251 2296 2324 2354 2388 2414 2429 2446 2467 2494 2518 2543 2581 2621 2662 2686 2688 2678 2665 2650 2644 2656 2686 2715 2742 2769 2797 2823 2846 2869 2892 2900 2902 2903 2903 2897 2878 2854
9999 2693 2734 2773 2807 2832 2857 2884 2911 2939 2966 2997 3007 3015 3023 3025 3022 3014 3007 3000 2984 2967 2951 2940 2938 2937 2935 2932 2929 2927 2920 2912 2904 2896 2881 2865 2849 2832 2816 2799 2780 2761 2741 2722 2704 2684 2660 2652 2664 2689 2707 2721 2734 2748 2762 2775 2789 2803 2822 2841 2860 2880 2899 2920 2942 2961 2977 2990 3004 3018 3034 3051 3068 3083 3099 3111 3123 3136 3149 3163 3177 3192 3207 3226 3249 3264 3274 3275 3268 3255 3239 3224 3211 3200 3169 3134 3099 3058 3016 2960 2904 2860 2808 2796 2778 2741 2711 2700 2700 2694 2670 2665 2657 2637 2621 2600 2559 2522 2491 2458 2430 2407 2381 2352 2324 2298 2279 2267 2273 2288 2304 2304 2301 2298 2300 2300 2251 2215 2219 2243 2256 2254 2236 2212 2164 2138 2187 2246 2302 2329 2351 2370 2376 2363 2348 2343 2334 2321 2306 2293 2273 2256 2245 2231 2208 2208 2229 2295 2328 2357 2386 2413 2436 2457 2476 2498 2520 2544 2568 2595 2643 2688 2695 2671 2645 2630 2617 2614 2633 2665 2698 2726 2755 2784 2811 2833 2855 2874 2891 2897 2896 2888 2869 2848 2825
9999 2711 2754 2794 2820 2845 2870 2895 2921 2948 2975 2999 3003 3008 3014 3015 3012 3007 3002 3000 2980 2954 2931 2915 2909 2909 2908 2907 2906 2905 2902 2897 2893 2883 2868 2855 2839 2823 2806 2790 2773 2754 2735 2716 2697 2677 2653 2646 2662 2689 2707 2722 2736 2751 2766 2780 2794 2810 2829 2848 2867 2887 2906 2926 2946 2968 2988 3003 3016 3030 3045 3061 3079 3096 3107 3117 3128 3141 3153 3165 3178 3192 3207 3227 3248 3265 3272 3273 3267 3254 3238 3223 3209 3195 3158 3121 3084 3046 3008 2948 2890 2851 2814 2799 2786 2765 2744 2736 2730 2723 2712 2708 2692 2670 2647 2618 2584 2545 2507 2475 2445 2415 2386 2360 2334 2308 2285 2261 2251 2262 2281 2299 2299 2299 2300 2300 2279 2234 2210 2216 2225 2221 2210 2200 2156 2126 2185 2238 2284 2315 2332 2340 2338 2328 2316 2310 2295 2274 2259 2244 2226 2215 2203 2201 2201 2243 2290 2318 2350 2383 2412 2433 2455 2479 2502 2522 2544 2569 2593 2629 2676 2696 2679 2646 2613 2597 2591 2592 2609 2644 2679 2708 2737 2766 2795 2817 2836 2851 2863 2868 2874 2873 2858 2828 2804
9999 2737 2783 2812 2835 2860 2884 2908 2930 2955 2980 3000 3001 3002 3005 3006 3004 3001 3000 2999 2976 2950 2923 2901 2899 2896 2889 2883 2879 2881 2881 2878 2870 2864 2854 2843 2829 2814 2798 2782 2765 2747 2728 2709 2690 2664 2644 2642 2658 2684 2704 2720 2736 2752 2768 2783 2798 2817 2835 2853 2872 2891 2913 2935 2954 2974 2994 3012 3028 3042 3057 3072 3088 3103 3114 3124 3135 3146 3157 3168 3180 3192 3207 3226 3247 3262 3269 3270 3264 3251 3234 3218 3206 3187 3152 3114 3077 3039 3001 2943 2899 2876 2849 2833 2815 2800 2787 2772 2761 2750 2741 2729 2714 2694 2665 2630 2592 2555 2517 2483 2452 2423 2393 2367 2340 2313 2289 2261 2241 2237 2252 2275 2290 2301 2300 2297 2279 2249 2218 2203 2203 2202 2201 2200 2160 2114 2161 2205 2251 2291 2303 2304 2300 2288 2276 2264 2247 2225 2214 2197 2187 2184 2195 2197 2236 2291 2320 2344 2371 2401 2429 2454 2475 2497 2521 2544 2565 2589 2623 2670 2687 2670 2629 2603 2580 2560 2554 2564 2599 2634 2663 2689 2715 2744 2773 2798 2815 2825 2830 2837 2852 2859 2852 2828 2808
9999 2771 2807 2828 2851 2875 2899 2920 2938 2956 2975 2994 3000 2999 3000 3001 3000 2999 3000 2988 2968 2945 2923 2901 2895 2886 2874 2862 2852 2850 2855 2851 2844 2841 2836 2826 2817 2804 2789 2774 2759 2742 2724 2706 2687 2666 2645 2639 2660 2681 2701 2718 2734 2750 2767 2784 2801 2820 2839 2857 2876 2895 2917 2941 2965 2986 3001 3017 3034 3051 3067 3082 3098 3108 3118 3128 3138 3149 3159 3170 3181 3192 3204 3222 3241 3257 3265 3268 3259 3243 3226 3212 3202 3178 3142 3106 3069 3028 2992 2962 2936 2913 2895 2876 2855 2838 2822 2803 2788 2777 2763 2747 2728 2707 2677 2638 2600 2563 2525 2493 2462 2430 2396 2370 2344 2321 2299 2273 2239 2226 2228 2251 2259 2262 2268 2266 2256 2234 2211 2195 2196 2199 2200 2200 2180 2117 2112 2169 2210 2247 2255 2253 2247 2235 2224 2212 2199 2182 2169 2158 2153 2168 2196 2220 2265 2310 2339 2367 2394 2418 2444 2473 2496 2516 2538 2562 2585 2611 2657 2680 2659 2620 2591 2567 2540 2520 2516 2543 2585 2619 2645 2670 2694 2720 2747 2773 2790 2798 2802 2813 2832 2847 2847 2850 2837
9999 2800 2821 2841 2862 2885 2909 2937 2958 2971 2981 2989 3019 2979 2972 2978 2996 3000 3001 2989 2969 2947 2923 2902 2889 2874 2859 2843 2828 2820 2821 2820 2817 2815 2814 2808 2801 2793 2781 2766 2751 2736 2720 2703 2682 2654 2634 2631 2645 2672 2695 2712 2729 2747 2766 2785 2804 2823 2842 2860 2879 2898 2920 2945 2969 2992 3006 3022 3039 3056 3074 3091 3104 3114 3123 3133 3142 3151 3161 3170 3180 3190 3200 3215 3231 3247 3258 3265 3261 3247 3227 3210 3199 3179 3141 3106 3074 3040 3016 2999 2988 2970 2942 2915 2893 2876 2854 2831 2813 2797 2779 2758 2735 2709 2678 2643 2608 2573 2539 2506 2471 2433 2396 2372 2348 2324 2300 2271 2236 2223 2215 2222 2216 2220 2226 2226 2228 2212 2194 2175 2169 2184 2200 2200 2196 2130 2100 2133 2177 2193 2197 2196 2195 2186 2175 2163 2155 2135 2121 2126 2143 2176 2208 2247 2287 2322 2351 2380 2409 2435 2458 2487 2514 2534 2554 2578 2604 2643 2671 2660 2617 2588 2566 2544 2513 2489 2493 2520 2565 2605 2631 2654 2677 2697 2723 2748 2761 2770 2779 2798 2828 2849 2829 2828 2848
9999 2807 2829 2851 2872 2894 2918 2952 2976 2983 2982 2971 2966 2947 2939 2946 2967 2978 2992 2995 2978 2952 2926 2902 2884 2865 2846 2828 2811 2800 2800 2799 2795 2793 2793 2791 2787 2782 2771 2759 2744 2729 2713 2698 2674 2644 2627 2628 2643 2667 2689 2706 2726 2748 2769 2790 2808 2827 2845 2864 2883 2901 2924 2946 2968 2990 3009 3026 3044 3062 3079 3096 3107 3116 3126 3135 3144 3153 3161 3170 3179 3187 3195 3206 3220 3234 3247 3258 3261 3255 3238 3218 3204 3187 3155 3121 3093 3068 3045 3026 3019 3006 2980 2947 2924 2903 2877 2853 2826 2803 2786 2762 2735 2710 2680 2647 2614 2580 2547 2513 2476 2436 2397 2371 2345 2319 2294 2262 2241 2226 2218 2213 2205 2201 2199 2197 2199 2187 2168 2153 2141 2148 2178 2200 2200 2157 2100 2099 2117 2138 2146 2149 2151 2145 2128 2114 2111 2109 2114 2136 2167 2198 2230 2268 2303 2332 2361 2391 2419 2448 2473 2497 2524 2551 2571 2592 2624 2659 2656 2617 2589 2567 2544 2522 2497 2458 2476 2514 2554 2592 2618 2641 2662 2682 2701 2720 2733 2740 2757 2783 2830 2835 2799 2800 2809
9999 2818 2838 2859 2881 2902 2929 2960 2980 2983 2970 2947 2934 2916 2908 2915 2940 2958 2984 2998 2990 2966 2934 2904 2882 2861 2840 2819 2800 2800 2796 2789 2782 2777 2776 2775 2773 2768 2760 2750 2737 2722 2707 2688 2661 2633 2622 2628 2647 2674 2694 2704 2724 2746 2769 2791 2809 2828 2846 2864 2882 2901 2924 2946 2968 2990 3010 3030 3048 3067 3085 3101 3110 3118 3127 3136 3144 3153 3162 3170 3177 3185 3192 3198 3210 3221 3236 3250 3257 3256 3245 3229 3213 3202 3178 3146 3119 3095 3070 3054 3038 3021 3001 2970 2943 2918 2891 2862 2831 2803 2781 2757 2734 2710 2681 2647 2614 2580 2547 2514 2475 2431 2392 2364 2337 2310 2287 2264 2251 2247 2242 2242 2226 2220 2210 2200 2198 2182 2167 2156 2139 2125 2134 2181 2203 2191 2129 2095 2081 2089 2095 2101 2106 2104 2095 2099 2105 2128 2146 2180 2203 2231 2264 2291 2313 2343 2372 2402 2429 2458 2486 2512 2537 2563 2587 2609 2642 2649 2618 2591 2570 2547 2523 2499 2458 2434 2475 2518 2550 2581 2608 2628 2648 2668 2684 2694 2704 2716 2742 2776 2821 2831 2800 2800 2800
9999 2825 2846 2868 2889 2910 2934 2963 2974 2970 2949 2924 2907 2897 2897 2899 2917 2943 2976 2996 2997 2979 2940 2907 2884 2863 2842 2820 2799 2796 2787 2778 2768 2759 2759 2759 2759 2754 2747 2738 2728 2715 2701 2678 2644 2622 2619 2630 2658 2685 2701 2711 2729 2747 2765 2785 2802 2821 2840 2861 2881 2901 2923 2945 2967 2990 3011 3032 3052 3072 3092 3104 3112 3120 3128 3136 3144 3152 3160 3168 3175 3181 3188 3194 3199 3211 3226 3241 3250 3252 3247 3236 3219 3209 3200 3172 3143 3114 3089 3069 3049 3027 3005 2978 2949 2920 2891 2862 2833 2805 2780 2757 2733 2710 2679 2643 2608 2575 2542 2510 2466 2418 2382 2349 2326 2300 2285 2277 2278 2280 2278 2277 2270 2262 2254 2245 2235 2215 2197 2187 2171 2139 2114 2130 2168 2178 2130 2103 2092 2066 2060 2066 2074 2078 2089 2105 2134 2161 2187 2216 2249 2275 2296 2301 2319 2350 2383 2411 2437 2464 2492 2520 2547 2573 2599 2625 2639 2622 2594 2572 2551 2528 2505 2467 2425 2421 2475 2515 2544 2570 2594 2614 2633 2650 2664 2680 2694 2705 2736 2774 2818 2838 2800 2800 2799
9999 2828 2851 2871 2893 2915 2938 2959 2953 2946 2924 2903 2886 2880 2881 2887 2902 2931 2966 2990 2996 2985 2950 2913 2888 2865 2841 2818 2798 2788 2777 2765 2753 2742 2742 2742 2744 2740 2733 2726 2717 2707 2690 2661 2631 2615 2619 2640 2671 2695 2713 2724 2741 2757 2772 2787 2800 2819 2840 2860 2880 2900 2922 2945 2966 2988 3008 3030 3052 3074 3096 3106 3113 3120 3128 3136 3143 3151 3158 3164 3171 3177 3183 3189 3195 3201 3213 3226 3239 3244 3243 3235 3225 3215 3205 3186 3155 3125 3098 3074 3051 3028 3005 2978 2950 2921 2893 2864 2835 2806 2779 2753 2729 2705 2673 2637 2602 2569 2537 2504 2452 2401 2368 2333 2305 2299 2298 2296 2300 2312 2314 2316 2312 2304 2305 2297 2288 2272 2251 2236 2207 2185 2129 2104 2121 2147 2114 2103 2100 2086 2054 2047 2057 2077 2104 2134 2163 2191 2222 2262 2294 2315 2330 2331 2342 2365 2393 2419 2444 2470 2496 2526 2555 2582 2606 2625 2620 2599 2575 2551 2532 2511 2481 2447 2416 2425 2471 2508 2533 2555 2575 2598 2617 2630 2646 2666 2685 2708 2742 2775 2812 2850 2809 2805 2818
9999 2831 2852 2875 2896 2916 2937 2941 2933 2919 2904 2884 2862 2853 2853 2866 2890 2915 2945 2980 2995 2988 2955 2916 2888 2863 2838 2814 2793 2781 2768 2753 2739 2727 2723 2725 2730 2727 2722 2714 2707 2696 2674 2644 2618 2612 2623 2654 2685 2705 2723 2740 2756 2770 2780 2790 2801 2820 2839 2860 2880 2899 2920 2941 2961 2983 3005 3028 3052 3076 3100 3106 3113 3120 3127 3134 3141 3148 3154 3161 3167 3172 3178 3184 3190 3195 3202 3212 3223 3231 3233 3230 3225 3216 3205 3186 3158 3130 3102 3078 3054 3030 3006 2978 2948 2918 2890 2863 2834 2806 2778 2749 2721 2694 2663 2630 2596 2563 2531 2498 2440 2387 2352 2321 2306 2296 2314 2342 2352 2363 2372 2374 2368 2361 2346 2334 2325 2312 2300 2300 2260 2217 2170 2121 2104 2113 2104 2099 2100 2089 2050 2042 2066 2097 2129 2161 2191 2225 2262 2301 2329 2348 2365 2370 2374 2386 2406 2427 2452 2477 2502 2532 2563 2592 2606 2611 2600 2577 2554 2531 2510 2487 2451 2419 2404 2422 2463 2494 2517 2531 2553 2579 2599 2611 2633 2658 2685 2714 2747 2781 2816 2850 2834 2835 2843
9999 2833 2852 2871 2891 2908 2921 2919 2912 2902 2885 2863 2838 2824 2823 2843 2871 2900 2926 2956 2985 2984 2951 2913 2884 2860 2835 2811 2793 2778 2761 2745 2729 2716 2706 2709 2715 2715 2711 2704 2699 2681 2655 2628 2610 2613 2629 2664 2695 2715 2734 2751 2766 2777 2786 2796 2807 2823 2840 2858 2876 2894 2915 2937 2959 2982 3004 3028 3051 3075 3099 3106 3112 3118 3125 3131 3138 3144 3150 3156 3161 3167 3173 3179 3184 3190 3195 3200 3208 3214 3216 3218 3216 3209 3201 3181 3157 3132 3107 3081 3055 3028 3002 2973 2943 2915 2885 2855 2829 2801 2773 2746 2717 2688 2655 2623 2590 2558 2525 2488 2431 2375 2322 2308 2330 2341 2367 2395 2407 2420 2423 2420 2414 2403 2382 2370 2354 2332 2318 2307 2286 2239 2194 2155 2113 2098 2098 2095 2087 2048 2031 2052 2090 2122 2156 2189 2221 2257 2297 2335 2364 2381 2397 2404 2405 2411 2423 2441 2463 2487 2512 2542 2572 2595 2600 2597 2577 2556 2532 2509 2482 2453 2419 2395 2396 2416 2450 2481 2498 2507 2532 2557 2579 2603 2631 2664 2694 2723 2756 2788 2816 2843 2850 2850 2849
9999 2834 2849 2865 2878 2895 2901 2899 2891 2880 2864 2845 2821 2801 2800 2819 2849 2881 2910 2942 2976 2989 2955 2906 2880 2857 2834 2812 2797 2783 2765 2745 2726 2710 2699 2692 2700 2703 2701 2700 2692 2670 2636 2612 2607 2612 2645 2671 2698 2718 2740 2758 2773 2783 2793 2804 2819 2833 2848 2863 2879 2896 2916 2936 2956 2977 2998 3023 3048 3074 3098 3104 3110 3116 3122 3129 3135 3140 3146 3151 3156 3162 3168 3173 3179 3184 3188 3193 3197 3200 3204 3206 3204 3201 3191 3173 3151 3130 3107 3081 3053 3024 2997 2967 2940 2914 2885 2852 2819 2791 2764 2736 2709 2681 2650 2617 2585 2552 2520 2477 2415 2357 2317 2325 2367 2392 2432 2475 2490 2496 2466 2455 2440 2422 2406 2399 2374 2350 2334 2318 2299 2245 2193 2159 2125 2101 2095 2061 2044 2023 2041 2086 2117 2152 2186 2218 2252 2287 2328 2370 2400 2409 2422 2433 2438 2447 2455 2466 2478 2493 2516 2543 2568 2583 2588 2571 2554 2534 2511 2485 2455 2422 2390 2365 2386 2410 2437 2469 2494 2499 2518 2546 2575 2605 2635 2667 2697 2728 2759 2790 2812 2831 2838 2836 2829
