ncols         205
nrows         93
xllcorner     0
yllcorner     90
cellsize      2
NODATA_value  9999
3188 3188 3187 3180 3168 3161 3164 3179 3197 3204 3211 3218 3224 3227 3227 3224 3218 3210 3205 3204 3201 3199 3170 3131 3090 3046 3001 2953 2903 2853 2802 2772 2741 2709 2676 2639 2608 2599 2589 2559 2521 2499 2497 2476 2445 2406 2386 2362 2341 2327 2318 2331 2321 2297 2284 2276 2257 2238 2228 2216 2199 2190 2171 2154 2143 2133 2125 2112 2114 2114 2099 2097 2084 2085 2082 2084 2092 2097 2095 2083 2059 2024 1999 1999 1994 1990 1990 1994 1998 2009 2018 2024 2025 2025 2021 2014 2006 2001 1984 1962 1930 1892 1851 1813 1788 1767 1753 1743 1735 1728 1732 1728 1729 1745 1769 1789 1819 1885 1927 1961 1994 2015 2028 2036 2042 2044 2036 2032 2032 2068 2103 2150 2196 2246 2296 2318 2343 2352 2344 2323 2302 2250 2188 2134 2083 2035 1993 1963 1952 1969 1994 2020 2049 2080 2112 2143 2168 2190 2206 2217 2223 2224 2219 2212 2205 2200 2182 2150 2119 2087 2054 2023 1974 1893 1872 1863 1881 1904 1929 1946 1947 1958 1982 1996 2009 2081 2130 2172 2210 2242 2273 2292 2299 2288 2284 2274 2259 2245 2230 2209 2178 2136 2105 2104 9999
3174 3174 3171 3162 3150 3146 3152 3168 3193 3203 3210 3217 3224 3228 3229 3227 3221 3215 3212 3207 3203 3200 3183 3137 3092 3045 2997 2949 2904 2849 2797 2767 2736 2704 2671 2635 2602 2600 2598 2581 2554 2536 2521 2504 2486 2456 2422 2394 2363 2344 2319 2315 2299 2279 2259 2240 2224 2212 2204 2201 2196 2192 2181 2176 2152 2139 2129 2123 2122 2105 2099 2105 2114 2127 2126 2124 2123 2126 2121 2109 2085 2049 2013 1996 1984 1977 1976 1979 1981 1998 2001 2004 2003 2003 2001 1987 1968 1954 1937 1916 1895 1863 1824 1798 1783 1775 1779 1788 1777 1764 1739 1723 1723 1737 1759 1781 1801 1871 1919 1951 1982 2002 2008 2010 2013 2006 1998 1997 1999 2032 2105 2149 2195 2244 2294 2321 2350 2364 2357 2337 2316 2284 2214 2157 2105 2055 2007 1974 1941 1935 1961 1992 2022 2055 2084 2106 2132 2159 2180 2194 2202 2207 2205 2203 2200 2200 2177 2148 2118 2088 2056 2026 1996 1896 1868 1848 1854 1884 1901 1911 1911 1935 1970 1997 2044 2097 2139 2180 2213 2240 2268 2286 2288 2278 2264 2256 2243 2227 2211 2185 2143 2102 2093 2089 9999
3160 3159 3155 3144 3136 3138 3148 3161 3188 3202 3208 3216 3224 3229 3231 3230 3226 3223 3217 3211 3205 3201 3173 3130 3087 3038 2994 2949 2904 2845 2791 2757 2726 2696 2668 2633 2607 2600 2604 2604 2597 2582 2564 2542 2526 2506 2475 2440 2416 2407 2382 2359 2327 2293 2275 2251 2239 2230 2223 2225 2223 2221 2218 2216 2202 2202 2198 2192 2192 2194 2190 2180 2184 2178 2174 2167 2159 2153 2140 2123 2104 2071 2032 2001 1987 1971 1959 1955 1954 1964 1964 1960 1959 1957 1946 1940 1927 1909 1891 1872 1849 1828 1807 1799 1799 1814 1830 1846 1834 1803 1767 1733 1721 1732 1752 1775 1795 1855 1911 1941 1970 1992 2000 2000 1984 1971 1976 1987 1999 2039 2111 2157 2202 2250 2298 2332 2367 2380 2377 2358 2335 2308 2246 2179 2130 2080 2034 1992 1949 1922 1926 1962 2001 2031 2057 2078 2105 2132 2152 2166 2180 2189 2197 2200 2200 2194 2171 2144 2115 2088 2058 2029 2003 1922 1874 1840 1834 1853 1873 1888 1895 1929 1980 2019 2061 2106 2148 2191 2217 2245 2272 2283 2278 2267 2248 2238 2226 2211 2189 2147 2105 2086 2077 2077 9999
3146 3145 3138 3129 3128 3136 3149 3165 3183 3200 3207 3215 3223 3229 3233 3233 3231 3227 3221 3214 3207 3202 3173 3128 3083 3039 2992 2945 2895 2831 2782 2746 2713 2698 2683 2658 2638 2638 2644 2642 2635 2623 2599 2575 2558 2538 2514 2487 2464 2446 2423 2407 2389 2357 2319 2292 2285 2277 2269 2266 2266 2260 2254 2249 2243 2243 2245 2239 2238 2238 2231 2226 2227 2219 2212 2201 2187 2172 2154 2132 2112 2087 2055 2025 1997 1979 1956 1936 1926 1923 1910 1911 1910 1902 1895 1892 1880 1855 1839 1821 1806 1803 1814 1828 1863 1884 1897 1900 1898 1853 1794 1765 1723 1724 1743 1766 1788 1838 1904 1930 1954 1971 1974 1960 1940 1927 1947 1981 2007 2070 2119 2161 2204 2255 2304 2345 2383 2395 2396 2379 2353 2322 2280 2209 2155 2103 2055 2008 1971 1928 1911 1930 1972 2007 2033 2058 2083 2106 2126 2145 2158 2169 2178 2185 2185 2178 2162 2137 2110 2083 2054 2027 2004 1956 1882 1841 1822 1829 1848 1871 1890 1925 1994 2039 2079 2120 2163 2202 2227 2257 2277 2281 2272 2254 2239 2224 2211 2192 2161 2127 2087 2065 2061 2065 9999
3131 3131 3124 3122 3128 3140 3155 3171 3186 3200 3206 3214 3223 3230 3234 3235 3233 3229 3222 3214 3206 3200 3164 3122 3076 3022 2976 2935 2882 2810 2769 2729 2699 2700 2698 2689 2679 2682 2684 2679 2673 2662 2634 2610 2590 2570 2548 2524 2503 2483 2461 2447 2430 2416 2403 2365 2340 2326 2315 2309 2308 2299 2293 2290 2288 2282 2293 2288 2280 2275 2269 2270 2266 2252 2240 2222 2202 2183 2160 2135 2113 2097 2066 2035 2005 1982 1957 1931 1910 1898 1889 1881 1874 1858 1845 1835 1825 1816 1811 1807 1810 1824 1851 1878 1905 1913 1910 1904 1900 1899 1839 1791 1750 1713 1727 1748 1780 1820 1881 1913 1930 1943 1937 1917 1899 1902 1937 1985 2029 2086 2129 2167 2206 2255 2303 2345 2387 2408 2410 2399 2372 2340 2310 2250 2181 2129 2079 2034 1994 1948 1913 1908 1933 1974 2011 2036 2059 2081 2105 2125 2138 2149 2159 2167 2168 2162 2150 2130 2105 2078 2052 2024 2002 1946 1890 1851 1815 1815 1836 1869 1897 1947 2002 2050 2095 2133 2172 2206 2234 2263 2276 2277 2266 2245 2225 2211 2194 2161 2130 2107 2060 2040 2044 2054 9999
3119 3118 3117 3121 3132 3146 3161 3175 3188 3200 3206 3214 3222 3229 3234 3236 3237 3233 3226 3217 3208 3197 3151 3111 3057 3002 2962 2924 2870 2798 2771 2740 2717 2710 2705 2700 2723 2733 2728 2717 2710 2698 2671 2646 2623 2604 2584 2562 2539 2518 2501 2487 2467 2451 2436 2417 2402 2386 2377 2368 2358 2346 2335 2331 2328 2320 2328 2321 2309 2300 2293 2289 2279 2261 2243 2218 2197 2176 2154 2133 2110 2089 2059 2029 2001 1977 1954 1932 1912 1896 1881 1871 1860 1853 1852 1850 1849 1853 1843 1845 1858 1875 1894 1910 1923 1930 1924 1915 1906 1900 1874 1803 1752 1712 1710 1731 1768 1804 1863 1900 1910 1918 1905 1879 1885 1908 1959 2005 2048 2097 2135 2174 2212 2255 2295 2336 2376 2404 2415 2405 2386 2356 2325 2287 2213 2155 2101 2057 2013 1975 1940 1911 1904 1927 1978 2012 2035 2059 2085 2106 2119 2131 2141 2148 2150 2147 2136 2121 2101 2071 2043 2018 1984 1926 1882 1841 1811 1811 1839 1878 1914 1969 2019 2065 2108 2144 2180 2210 2236 2264 2271 2264 2248 2227 2210 2194 2167 2135 2101 2071 2022 2006 2024 2044 9999
3107 3109 3114 3124 3137 3150 3163 3176 3188 3200 3207 3214 3222 3228 3233 3238 3240 3239 3234 3225 3213 3198 3147 3099 3039 2986 2939 2901 2859 2806 2793 2777 2776 2778 2780 2782 2786 2790 2771 2754 2743 2725 2704 2677 2653 2632 2615 2597 2572 2553 2537 2521 2503 2485 2467 2448 2431 2420 2415 2410 2403 2388 2375 2369 2369 2364 2357 2336 2313 2297 2285 2277 2261 2233 2216 2202 2179 2160 2143 2124 2105 2070 2039 2009 1981 1946 1923 1911 1905 1895 1892 1891 1894 1894 1900 1904 1905 1906 1900 1899 1905 1914 1925 1934 1944 1947 1940 1928 1915 1904 1882 1816 1743 1700 1699 1716 1754 1793 1853 1896 1900 1900 1858 1838 1886 1929 1978 2022 2062 2104 2139 2174 2210 2250 2282 2307 2347 2390 2401 2403 2383 2357 2331 2306 2247 2184 2132 2077 2032 1992 1957 1920 1897 1899 1924 1976 2011 2035 2059 2080 2100 2113 2123 2130 2132 2132 2123 2110 2089 2059 2031 2004 1963 1907 1870 1828 1805 1807 1845 1888 1934 1989 2037 2082 2120 2154 2187 2217 2247 2262 2258 2241 2224 2207 2190 2165 2138 2109 2073 2036 2000 1997 2017 2034 9999
3098 3105 3115 3126 3138 3150 3162 3174 3186 3197 3206 3214 3220 3225 3232 3238 3242 3243 3240 3232 3213 3189 3142 3094 3013 2974 2928 2891 2859 2841 2821 2852 2864 2857 2852 2846 2840 2828 2807 2789 2773 2751 2728 2705 2680 2657 2638 2620 2603 2588 2569 2550 2532 2515 2497 2477 2458 2453 2446 2434 2415 2401 2400 2392 2388 2378 2351 2319 2297 2278 2257 2242 2224 2204 2183 2168 2150 2129 2120 2107 2082 2042 2009 1986 1954 1922 1911 1908 1910 1913 1916 1920 1928 1929 1933 1938 1938 1939 1937 1938 1945 1952 1958 1961 1967 1966 1957 1943 1928 1912 1884 1826 1749 1698 1698 1706 1745 1783 1824 1852 1867 1856 1814 1842 1907 1952 1997 2034 2072 2109 2143 2177 2209 2238 2260 2280 2308 2341 2368 2376 2368 2345 2323 2305 2276 2224 2175 2096 2051 2007 1973 1939 1904 1891 1897 1936 1979 2009 2031 2052 2074 2094 2107 2112 2114 2116 2110 2097 2069 2037 2008 1979 1941 1896 1862 1826 1802 1808 1850 1900 1955 2008 2053 2099 2130 2160 2192 2231 2256 2257 2247 2222 2206 2187 2164 2139 2110 2079 2043 2006 1972 1977 2009 2026 9999
3100 3104 3114 3125 3137 3149 3162 3174 3185 3197 3204 3212 3217 3223 3229 3237 3243 3245 3243 3231 3210 3182 3139 3086 2996 2970 2935 2910 2914 2919 2924 2929 2931 2921 2912 2899 2883 2858 2837 2818 2798 2775 2752 2728 2702 2679 2659 2638 2619 2603 2597 2577 2559 2538 2519 2501 2481 2480 2472 2452 2421 2403 2396 2380 2366 2350 2318 2293 2272 2252 2232 2211 2192 2168 2143 2125 2115 2098 2086 2067 2031 1999 1982 1957 1932 1925 1931 1944 1950 1951 1957 1961 1964 1966 1968 1971 1971 1972 1977 1979 1984 1992 1993 1989 1989 1985 1975 1960 1939 1918 1888 1834 1764 1697 1695 1698 1731 1779 1800 1815 1827 1811 1816 1874 1921 1965 2008 2044 2080 2111 2139 2169 2194 2218 2230 2248 2274 2308 2335 2346 2342 2327 2310 2301 2292 2253 2212 2147 2070 2026 1986 1950 1915 1874 1867 1904 1944 1976 2003 2024 2045 2067 2084 2091 2096 2098 2091 2071 2044 2015 1984 1953 1918 1881 1849 1817 1796 1807 1863 1917 1970 2022 2070 2110 2137 2164 2191 2250 2256 2242 2224 2204 2184 2162 2140 2116 2087 2056 2022 1983 1939 1954 2002 2018 9999
3098 3104 3116 3127 3139 3151 3162 3173 3185 3195 3202 3208 3212 3215 3219 3225 3233 3237 3248 3235 3209 3173 3129 3076 2999 2991 2976 2963 2970 2977 2979 2982 2978 2967 2950 2930 2906 2883 2859 2836 2814 2798 2777 2751 2722 2696 2674 2649 2624 2605 2600 2597 2578 2556 2534 2514 2498 2491 2479 2454 2420 2399 2376 2356 2334 2311 2289 2268 2245 2226 2208 2180 2149 2128 2106 2080 2070 2060 2042 2021 1999 1982 1965 1950 1942 1956 1980 1987 1987 1994 2000 2001 2002 2003 2004 2004 2005 2005 2010 2011 2011 2015 2014 2010 2007 2001 1992 1971 1947 1921 1891 1841 1777 1696 1691 1695 1713 1762 1791 1801 1799 1800 1829 1893 1931 1968 2006 2044 2082 2105 2127 2148 2167 2183 2193 2205 2242 2285 2304 2316 2317 2309 2301 2300 2290 2257 2218 2164 2089 2044 2000 1964 1927 1886 1842 1869 1911 1943 1971 1995 2018 2040 2059 2067 2074 2071 2059 2042 2018 1992 1963 1931 1897 1864 1832 1803 1790 1799 1878 1930 1973 2022 2077 2115 2141 2167 2192 2235 2239 2221 2205 2185 2163 2140 2116 2093 2069 2040 2008 1960 1918 1936 1994 2011 9999
3097 3106 3117 3129 3140 3152 3163 3173 3183 3191 3199 3203 3205 3207 3207 3211 3219 3234 3249 3237 3209 3166 3115 3061 3019 3008 3011 3010 3013 3019 3021 3021 3015 3000 2977 2948 2916 2891 2862 2839 2817 2801 2794 2765 2734 2704 2678 2651 2624 2605 2600 2598 2579 2557 2535 2515 2500 2483 2463 2432 2403 2378 2352 2330 2312 2289 2265 2245 2221 2198 2172 2141 2109 2085 2058 2025 2014 2010 2011 2005 1998 1991 1988 1987 1990 1993 2033 2044 2050 2051 2052 2048 2045 2043 2042 2040 2036 2032 2034 2033 2032 2033 2030 2025 2020 2011 2002 1983 1955 1926 1892 1842 1779 1696 1687 1689 1698 1734 1763 1787 1797 1799 1848 1908 1939 1972 2005 2040 2071 2093 2107 2115 2116 2131 2161 2197 2232 2270 2281 2279 2282 2281 2282 2278 2268 2245 2219 2177 2113 2065 2024 1987 1944 1901 1843 1831 1877 1914 1942 1968 1993 2015 2035 2044 2051 2046 2029 2012 1994 1970 1942 1911 1877 1842 1811 1778 1773 1815 1890 1939 1983 2033 2087 2118 2143 2167 2188 2205 2213 2203 2187 2166 2143 2120 2096 2073 2051 2025 1995 1948 1913 1933 1984 2005 9999
3095 3108 3119 3130 3141 3152 3163 3173 3181 3186 3193 3196 3198 3200 3199 3201 3206 3219 3242 3248 3212 3171 3125 3084 3066 3056 3053 3049 3045 3051 3062 3059 3044 3015 2986 2949 2911 2884 2861 2838 2817 2802 2791 2760 2727 2698 2672 2645 2620 2602 2598 2581 2565 2544 2527 2509 2488 2456 2427 2402 2379 2353 2326 2303 2287 2266 2241 2221 2198 2166 2135 2103 2071 2038 2026 2025 2013 2016 2020 2017 2025 2027 2033 2048 2067 2090 2103 2104 2105 2106 2102 2097 2089 2083 2080 2074 2065 2058 2058 2055 2052 2050 2046 2040 2031 2021 2009 1992 1960 1926 1889 1843 1783 1696 1684 1683 1694 1708 1731 1758 1782 1799 1860 1912 1941 1968 2003 2025 2045 2062 2074 2089 2097 2100 2147 2201 2236 2255 2233 2231 2230 2232 2238 2239 2236 2223 2202 2168 2127 2081 2041 2000 1955 1911 1853 1815 1834 1885 1917 1943 1967 1992 2011 2023 2028 2022 2004 1986 1970 1949 1923 1892 1857 1821 1783 1747 1781 1838 1902 1944 1984 2035 2093 2118 2141 2162 2179 2190 2194 2184 2166 2145 2123 2101 2079 2057 2033 2008 1971 1929 1900 1911 1962 2000 9999
3099 3111 3122 3133 3146 3157 3167 3173 3175 3179 3182 3184 3187 3192 3197 3199 3200 3200 3233 3250 3205 3168 3136 3117 3109 3102 3096 3087 3077 3079 3082 3073 3047 3013 2980 2941 2904 2880 2857 2834 2814 2799 2772 2740 2710 2679 2650 2629 2608 2587 2572 2556 2538 2522 2506 2488 2460 2425 2397 2372 2349 2329 2304 2280 2262 2242 2218 2197 2173 2138 2104 2074 2050 2056 2073 2083 2060 2042 2049 2047 2062 2076 2092 2109 2118 2129 2137 2141 2140 2141 2134 2127 2120 2114 2109 2102 2093 2084 2082 2077 2070 2067 2061 2052 2041 2028 2014 1996 1960 1923 1884 1843 1788 1695 1681 1680 1690 1699 1721 1748 1775 1795 1857 1902 1927 1950 1974 2004 2015 2018 2036 2065 2090 2109 2167 2211 2246 2241 2201 2196 2187 2185 2194 2201 2201 2193 2179 2158 2126 2092 2052 2011 1969 1921 1871 1814 1810 1850 1892 1918 1941 1968 1988 2001 2005 1999 1986 1969 1950 1930 1906 1872 1837 1801 1744 1741 1799 1854 1908 1949 1987 2037 2091 2116 2138 2154 2166 2174 2174 2162 2144 2124 2102 2083 2063 2041 2019 1990 1946 1904 1882 1895 1933 1981 9999
3105 3117 3130 3143 3155 3164 3167 3166 3166 3169 3169 3171 3178 3184 3191 3196 3200 3200 3214 3254 3213 3178 3160 3156 3148 3143 3136 3118 3100 3091 3081 3065 3028 3000 2961 2921 2889 2866 2847 2826 2807 2776 2744 2713 2682 2652 2622 2601 2582 2562 2544 2530 2514 2498 2476 2450 2422 2393 2368 2343 2318 2298 2281 2259 2238 2219 2196 2171 2149 2124 2094 2071 2084 2099 2100 2105 2108 2093 2080 2082 2100 2117 2130 2142 2147 2158 2172 2175 2172 2170 2164 2157 2150 2142 2132 2122 2112 2106 2103 2096 2087 2082 2073 2062 2048 2031 2014 1997 1961 1925 1883 1831 1760 1694 1679 1680 1694 1714 1735 1761 1784 1799 1824 1871 1894 1904 1907 1952 1992 1999 2016 2052 2087 2128 2177 2216 2247 2243 2209 2185 2152 2134 2139 2158 2152 2153 2148 2139 2119 2095 2061 2025 1985 1933 1884 1828 1806 1822 1853 1889 1918 1946 1966 1988 1997 1993 1973 1954 1935 1915 1888 1852 1817 1772 1719 1755 1817 1867 1914 1952 1993 2041 2091 2115 2130 2141 2150 2157 2153 2142 2123 2103 2085 2066 2045 2024 2003 1968 1926 1887 1860 1879 1921 1962 9999
3110 3127 3140 3152 3160 3162 3159 3155 3154 3156 3157 3160 3168 3176 3184 3191 3197 3199 3213 3256 3229 3203 3196 3195 3188 3185 3170 3140 3105 3083 3061 3038 3005 2971 2932 2896 2872 2849 2827 2809 2783 2744 2709 2678 2649 2621 2593 2567 2550 2535 2516 2502 2487 2467 2445 2419 2388 2363 2339 2314 2291 2271 2253 2235 2216 2195 2173 2144 2117 2103 2097 2099 2120 2106 2097 2098 2098 2100 2100 2114 2137 2156 2166 2177 2177 2180 2187 2186 2176 2170 2165 2161 2156 2151 2145 2138 2130 2122 2112 2103 2099 2094 2083 2068 2051 2034 2019 2002 1968 1928 1883 1820 1744 1691 1673 1676 1696 1726 1760 1786 1798 1802 1812 1815 1833 1861 1898 1931 1985 2000 2021 2065 2103 2146 2196 2226 2253 2255 2227 2202 2168 2123 2112 2116 2106 2103 2110 2113 2101 2079 2050 2019 1986 1939 1895 1853 1810 1800 1816 1855 1899 1924 1944 1979 1993 1988 1965 1938 1920 1901 1869 1832 1796 1738 1710 1769 1826 1877 1920 1955 1991 2037 2084 2109 2119 2127 2133 2138 2133 2122 2104 2086 2069 2051 2032 2010 1982 1947 1909 1867 1838 1864 1909 1945 9999
3114 3135 3145 3153 3155 3152 3147 3143 3142 3142 3143 3151 3159 3168 3177 3186 3193 3199 3210 3253 3254 3225 3208 3208 3204 3202 3185 3148 3110 3076 3042 3013 2982 2946 2907 2877 2853 2830 2807 2776 2740 2704 2669 2638 2610 2584 2559 2534 2513 2505 2489 2470 2456 2437 2415 2388 2358 2333 2310 2284 2265 2245 2226 2208 2189 2156 2127 2117 2107 2099 2134 2195 2178 2145 2111 2093 2094 2104 2127 2150 2175 2194 2200 2201 2200 2196 2191 2173 2148 2142 2139 2136 2135 2136 2140 2139 2134 2125 2112 2103 2100 2100 2089 2073 2056 2039 2021 2004 1966 1924 1874 1813 1739 1690 1670 1674 1696 1729 1770 1804 1823 1838 1840 1852 1869 1903 1925 1966 1999 2020 2044 2092 2130 2167 2208 2233 2259 2272 2255 2230 2199 2161 2133 2104 2093 2084 2074 2069 2053 2045 2030 2008 1985 1945 1904 1863 1819 1795 1792 1815 1861 1901 1924 1959 1976 1972 1953 1927 1905 1881 1850 1814 1770 1716 1714 1781 1834 1887 1926 1963 1998 2040 2076 2101 2108 2113 2118 2119 2112 2103 2088 2071 2053 2036 2018 1997 1964 1931 1895 1843 1821 1850 1897 1929 9999
3118 3135 3143 3146 3145 3139 3133 3130 3130 3127 3133 3140 3149 3160 3170 3180 3189 3197 3211 3251 3259 3245 3223 3218 3212 3206 3188 3141 3098 3052 3014 2985 2955 2920 2887 2860 2834 2810 2774 2736 2706 2672 2629 2594 2566 2542 2520 2500 2481 2472 2460 2442 2424 2406 2381 2351 2324 2300 2275 2240 2239 2222 2201 2175 2145 2124 2113 2123 2149 2176 2201 2200 2200 2172 2122 2099 2111 2139 2164 2186 2208 2225 2224 2217 2208 2199 2181 2142 2113 2105 2106 2105 2105 2112 2119 2124 2124 2120 2108 2101 2100 2100 2097 2082 2064 2044 2023 2004 1963 1917 1866 1813 1735 1688 1666 1673 1697 1734 1778 1813 1839 1862 1879 1896 1914 1937 1965 2000 2022 2045 2071 2107 2147 2186 2219 2248 2274 2289 2285 2262 2231 2194 2159 2120 2093 2073 2045 2020 2004 1999 2004 1995 1974 1943 1909 1870 1829 1793 1768 1782 1817 1862 1903 1931 1948 1951 1934 1914 1892 1863 1833 1801 1738 1710 1730 1785 1833 1879 1919 1958 1994 2029 2060 2088 2100 2102 2105 2101 2091 2082 2070 2055 2037 2020 2003 1975 1944 1911 1882 1841 1813 1839 1882 1910 9999
3117 3131 3136 3137 3133 3126 3120 3117 3117 3116 3122 3131 3141 3152 3164 3176 3186 3195 3212 3244 3262 3249 3233 3223 3214 3206 3186 3126 3061 3011 2982 2955 2925 2893 2862 2834 2808 2765 2720 2685 2651 2618 2590 2549 2519 2497 2484 2470 2453 2438 2427 2413 2393 2365 2333 2310 2290 2263 2232 2211 2210 2204 2189 2158 2145 2138 2141 2166 2195 2222 2224 2219 2208 2183 2141 2125 2137 2172 2198 2220 2240 2257 2254 2244 2228 2209 2168 2110 2084 2064 2059 2055 2058 2078 2100 2103 2105 2106 2103 2100 2100 2100 2094 2082 2066 2047 2027 2006 1966 1914 1859 1803 1731 1687 1666 1676 1699 1739 1778 1816 1849 1877 1900 1920 1937 1962 1993 2020 2043 2066 2091 2124 2162 2200 2230 2262 2289 2302 2305 2297 2268 2228 2188 2147 2104 2077 2042 2007 2000 2000 1996 1975 1951 1925 1904 1873 1835 1798 1757 1748 1788 1827 1871 1901 1916 1924 1916 1900 1877 1849 1820 1775 1702 1698 1722 1782 1831 1875 1916 1952 1986 2018 2047 2073 2089 2089 2075 2067 2060 2059 2051 2038 2021 2004 1982 1955 1925 1894 1866 1834 1811 1827 1857 1886 9999
3110 3120 3121 3119 3116 3112 3108 3105 3103 3106 3113 3122 3133 3146 3158 3171 3184 3196 3216 3245 3263 3257 3237 3221 3211 3204 3191 3089 3009 2980 2955 2929 2901 2866 2834 2806 2757 2699 2660 2624 2596 2568 2532 2502 2489 2471 2452 2434 2421 2408 2394 2369 2334 2315 2301 2284 2264 2239 2223 2218 2221 2208 2193 2193 2192 2192 2194 2210 2241 2262 2266 2255 2230 2191 2176 2169 2180 2202 2230 2252 2271 2286 2283 2262 2239 2214 2165 2095 2057 2026 2007 1999 1998 2003 2019 2035 2051 2068 2084 2087 2089 2086 2079 2082 2078 2065 2044 2014 1975 1917 1860 1803 1728 1685 1664 1673 1698 1737 1777 1816 1855 1891 1914 1935 1955 1977 2005 2032 2058 2083 2109 2140 2177 2212 2241 2270 2300 2313 2321 2314 2302 2261 2220 2179 2134 2097 2063 2022 2000 1998 1989 1960 1928 1903 1900 1875 1841 1805 1760 1728 1751 1796 1833 1861 1884 1898 1896 1883 1861 1835 1808 1756 1697 1688 1710 1778 1827 1870 1909 1943 1978 2009 2035 2055 2063 2062 2038 2027 2027 2034 2030 2021 2005 1985 1961 1936 1907 1881 1855 1822 1800 1801 1825 1859 9999
3103 3107 3107 3105 3102 3100 3094 3089 3088 3099 3109 3121 3134 3146 3158 3170 3183 3195 3215 3246 3265 3261 3237 3216 3204 3189 3123 3000 2980 2957 2932 2907 2874 2837 2803 2760 2709 2649 2602 2589 2561 2526 2499 2497 2484 2461 2436 2413 2399 2395 2358 2335 2319 2313 2308 2292 2269 2259 2261 2271 2280 2275 2263 2259 2267 2275 2286 2297 2302 2306 2304 2295 2241 2198 2197 2195 2208 2235 2265 2286 2299 2300 2294 2268 2238 2209 2155 2093 2052 2012 1991 1975 1966 1970 1980 1984 1989 1994 2008 2030 2043 2048 2051 2067 2077 2073 2053 2017 1975 1919 1861 1798 1727 1684 1662 1668 1693 1729 1774 1819 1870 1907 1927 1947 1968 1990 2014 2039 2066 2093 2123 2153 2185 2219 2251 2281 2306 2326 2336 2330 2312 2290 2248 2206 2165 2125 2088 2053 2022 1999 1984 1952 1917 1900 1896 1874 1847 1812 1773 1721 1719 1760 1799 1825 1851 1870 1872 1863 1845 1822 1796 1746 1695 1672 1698 1756 1808 1851 1894 1932 1970 2003 2021 2031 2034 2031 2009 1998 1996 2007 2007 2002 1988 1967 1943 1918 1892 1869 1844 1818 1800 1798 1799 1832 9999
3089 3092 3092 3089 3083 3072 3060 3056 3066 3089 3106 3119 3131 3144 3158 3171 3184 3197 3222 3255 3268 3251 3230 3206 3177 3106 3060 2995 2966 2939 2915 2887 2845 2809 2764 2717 2675 2619 2596 2573 2543 2511 2499 2496 2487 2464 2436 2411 2397 2399 2392 2383 2372 2358 2338 2313 2298 2296 2305 2314 2324 2329 2325 2322 2325 2329 2329 2332 2334 2337 2330 2313 2270 2200 2200 2221 2245 2269 2297 2317 2316 2308 2299 2269 2236 2204 2149 2094 2059 2020 1992 1963 1943 1940 1952 1957 1960 1965 1973 1982 1993 2011 2023 2045 2062 2064 2045 2015 1975 1913 1850 1790 1724 1683 1658 1663 1691 1727 1772 1819 1869 1908 1930 1953 1976 1998 2023 2048 2072 2097 2127 2159 2192 2224 2257 2290 2313 2333 2350 2345 2325 2304 2268 2227 2186 2147 2109 2073 2043 2016 1992 1962 1926 1899 1889 1867 1843 1816 1786 1733 1710 1734 1770 1799 1825 1843 1845 1840 1830 1812 1781 1739 1695 1653 1694 1746 1797 1840 1884 1923 1959 1987 2005 2010 2011 2008 2000 1977 1966 1975 1980 1980 1970 1951 1927 1902 1882 1860 1836 1811 1794 1788 1784 1805 9999
3070 3070 3070 3066 3062 3050 3038 3039 3053 3083 3105 3118 3132 3146 3160 3174 3187 3201 3228 3260 3268 3248 3214 3190 3139 3085 3043 2996 2967 2938 2910 2876 2833 2793 2735 2687 2656 2623 2592 2564 2533 2503 2499 2498 2492 2474 2449 2435 2429 2430 2427 2421 2414 2397 2368 2342 2332 2339 2348 2359 2367 2368 2367 2367 2369 2371 2366 2363 2367 2366 2350 2326 2294 2231 2222 2256 2282 2306 2329 2347 2340 2324 2304 2271 2239 2205 2143 2089 2060 2031 2000 1966 1933 1926 1926 1933 1931 1935 1940 1946 1953 1972 1996 2012 2028 2041 2036 2012 1974 1909 1848 1786 1712 1678 1654 1659 1688 1723 1769 1817 1867 1908 1931 1955 1978 2002 2029 2055 2081 2107 2135 2166 2197 2230 2262 2295 2318 2345 2360 2360 2339 2314 2287 2245 2203 2164 2125 2090 2062 2037 2012 1983 1948 1917 1890 1864 1836 1806 1778 1744 1712 1717 1742 1773 1803 1818 1820 1818 1813 1804 1777 1734 1690 1638 1691 1741 1787 1831 1875 1914 1944 1971 1998 2001 2000 2000 1975 1939 1931 1940 1956 1957 1951 1935 1913 1891 1872 1852 1831 1807 1771 1743 1745 1777 9999
3048 3048 3047 3044 3041 3031 3027 3034 3049 3083 3104 3119 3133 3148 3162 3177 3191 3210 3241 3267 3269 3240 3208 3173 3130 3088 3042 2998 2970 2944 2918 2885 2841 2795 2737 2689 2659 2631 2603 2572 2539 2509 2500 2499 2497 2487 2477 2474 2468 2469 2465 2453 2438 2411 2387 2373 2368 2383 2391 2401 2406 2406 2407 2407 2407 2406 2401 2396 2399 2389 2364 2331 2299 2272 2265 2288 2321 2356 2374 2379 2364 2336 2305 2270 2236 2202 2134 2086 2059 2032 2005 1971 1929 1921 1917 1914 1910 1909 1907 1909 1910 1929 1945 1966 2001 2014 2014 2001 1967 1910 1847 1779 1711 1678 1652 1655 1683 1715 1766 1816 1866 1907 1932 1957 1981 2007 2035 2064 2091 2117 2144 2173 2203 2233 2263 2294 2319 2349 2370 2370 2352 2323 2297 2257 2218 2181 2143 2110 2081 2055 2029 2003 1971 1939 1905 1867 1820 1798 1771 1735 1703 1698 1716 1745 1777 1800 1803 1803 1802 1796 1758 1717 1662 1625 1686 1733 1777 1820 1863 1901 1929 1958 1983 1998 1997 1982 1946 1907 1900 1915 1933 1935 1931 1919 1899 1881 1862 1842 1822 1802 1746 1701 1713 1744 9999
3025 3025 3024 3023 3023 3021 3027 3040 3059 3083 3104 3119 3134 3148 3163 3178 3193 3214 3249 3271 3270 3244 3211 3178 3139 3099 3057 3015 2982 2951 2920 2886 2842 2796 2739 2690 2662 2634 2606 2579 2552 2529 2517 2514 2513 2514 2514 2514 2505 2505 2497 2480 2453 2416 2397 2393 2392 2412 2426 2433 2437 2437 2437 2435 2433 2430 2423 2413 2403 2400 2379 2337 2299 2294 2295 2328 2367 2400 2400 2400 2377 2342 2306 2269 2232 2191 2122 2082 2056 2031 2005 1965 1929 1920 1915 1908 1900 1895 1873 1864 1861 1882 1888 1895 1942 1979 1984 1971 1939 1906 1841 1774 1712 1677 1648 1650 1679 1712 1758 1807 1861 1907 1933 1959 1985 2012 2040 2068 2097 2124 2152 2179 2208 2238 2269 2298 2325 2357 2377 2378 2358 2324 2299 2264 2231 2198 2163 2129 2098 2072 2044 2019 1992 1958 1921 1881 1830 1797 1771 1731 1699 1687 1694 1720 1752 1783 1800 1800 1800 1783 1750 1716 1662 1615 1670 1723 1768 1811 1851 1889 1920 1946 1966 1977 1976 1962 1928 1900 1898 1899 1910 1912 1910 1901 1889 1873 1854 1835 1814 1781 1712 1688 1692 1711 9999
3003 3003 3002 3005 3011 3020 3034 3052 3071 3089 3105 3120 3135 3150 3165 3180 3195 3217 3247 3269 3267 3244 3216 3188 3147 3108 3067 3026 2988 2957 2927 2899 2856 2807 2749 2694 2665 2636 2602 2594 2582 2569 2573 2583 2572 2566 2562 2558 2545 2539 2523 2501 2465 2419 2400 2399 2420 2442 2458 2465 2467 2468 2467 2463 2458 2453 2444 2429 2415 2403 2380 2336 2304 2306 2335 2372 2403 2409 2405 2401 2381 2346 2308 2269 2228 2179 2110 2077 2052 2026 2000 1961 1934 1924 1920 1920 1905 1894 1874 1840 1822 1821 1838 1836 1880 1920 1943 1943 1922 1901 1839 1774 1714 1677 1647 1645 1674 1706 1753 1800 1857 1907 1934 1961 1989 2018 2047 2075 2102 2129 2156 2184 2213 2242 2272 2301 2328 2363 2383 2384 2365 2332 2305 2275 2243 2211 2179 2146 2114 2085 2058 2033 2007 1974 1939 1906 1864 1818 1781 1741 1701 1673 1668 1694 1722 1752 1779 1797 1796 1774 1744 1711 1652 1608 1667 1723 1767 1810 1846 1881 1911 1929 1944 1955 1957 1946 1924 1899 1893 1883 1883 1887 1892 1894 1883 1867 1848 1829 1810 1769 1702 1672 1663 1681 9999
2976 2977 2982 2995 3004 3018 3035 3055 3074 3091 3108 3124 3139 3153 3168 3183 3198 3220 3248 3267 3265 3244 3217 3190 3154 3121 3086 3041 2999 2971 2941 2908 2864 2812 2757 2702 2670 2637 2612 2599 2601 2614 2628 2641 2630 2620 2610 2598 2582 2565 2542 2516 2476 2419 2408 2432 2459 2478 2489 2497 2498 2499 2497 2491 2483 2476 2463 2445 2426 2408 2379 2323 2325 2347 2381 2410 2426 2425 2416 2405 2389 2347 2304 2263 2221 2167 2099 2073 2048 2022 1996 1964 1947 1954 1961 1950 1935 1925 1908 1879 1839 1808 1804 1795 1808 1864 1900 1911 1905 1885 1845 1785 1717 1677 1647 1642 1672 1700 1751 1799 1857 1907 1936 1964 1993 2023 2054 2085 2112 2137 2162 2189 2217 2244 2272 2299 2328 2362 2387 2385 2364 2333 2306 2277 2248 2219 2188 2156 2126 2097 2070 2044 2017 1986 1954 1924 1887 1842 1802 1761 1720 1680 1644 1655 1691 1722 1752 1769 1772 1757 1732 1703 1647 1605 1654 1714 1759 1803 1836 1867 1900 1912 1925 1934 1937 1930 1913 1885 1855 1846 1852 1863 1880 1889 1880 1862 1844 1825 1807 1763 1700 1665 1639 1653 9999
2946 2948 2962 2983 3003 3020 3038 3055 3073 3090 3108 3124 3140 3157 3172 3187 3202 3220 3250 3267 3265 3245 3217 3192 3159 3125 3091 3051 3011 2976 2942 2909 2864 2813 2763 2713 2682 2657 2644 2644 2653 2668 2684 2698 2686 2675 2661 2638 2609 2583 2554 2519 2489 2459 2452 2484 2504 2515 2521 2527 2528 2529 2526 2519 2507 2496 2480 2457 2428 2401 2343 2332 2366 2396 2417 2438 2440 2433 2418 2405 2383 2336 2293 2255 2215 2155 2095 2065 2030 2009 1998 1981 1985 1994 1991 1982 1975 1960 1938 1914 1890 1852 1810 1781 1772 1802 1847 1867 1875 1861 1828 1786 1719 1680 1650 1642 1666 1697 1746 1797 1851 1903 1935 1966 1998 2028 2059 2089 2117 2142 2168 2194 2220 2247 2273 2299 2331 2368 2393 2386 2361 2332 2306 2280 2252 2224 2196 2165 2136 2108 2082 2054 2025 1997 1969 1938 1905 1864 1825 1787 1742 1696 1647 1624 1655 1702 1727 1740 1744 1735 1715 1684 1628 1608 1649 1704 1748 1788 1822 1856 1892 1903 1910 1917 1919 1913 1897 1851 1811 1812 1825 1846 1870 1883 1879 1862 1839 1820 1802 1762 1707 1667 1627 1681 9999
2917 2922 2945 2979 3006 3023 3041 3058 3076 3094 3111 3128 3144 3160 3177 3192 3208 3224 3242 3260 3254 3235 3215 3193 3160 3127 3095 3054 3012 2976 2944 2910 2864 2813 2773 2731 2701 2687 2687 2695 2707 2721 2735 2749 2749 2735 2694 2660 2628 2594 2555 2513 2499 2492 2488 2513 2536 2547 2554 2557 2559 2560 2556 2546 2532 2517 2493 2461 2423 2387 2368 2395 2420 2435 2451 2457 2449 2435 2418 2403 2374 2324 2279 2241 2202 2132 2080 2046 2023 2008 2002 2003 2024 2033 2030 2021 2010 1992 1968 1943 1920 1889 1840 1791 1750 1757 1797 1821 1838 1835 1816 1787 1719 1681 1648 1640 1661 1694 1740 1796 1845 1893 1931 1968 2003 2034 2064 2095 2121 2147 2173 2198 2223 2248 2273 2298 2356 2381 2397 2387 2363 2333 2306 2281 2254 2228 2202 2174 2147 2123 2100 2071 2043 2015 1986 1953 1919 1883 1846 1811 1769 1722 1677 1622 1617 1668 1706 1715 1718 1714 1695 1648 1602 1599 1640 1693 1734 1773 1812 1847 1880 1899 1900 1903 1905 1893 1864 1827 1800 1800 1808 1834 1863 1879 1877 1862 1838 1814 1790 1753 1713 1673 1630 1625 9999
2897 2906 2937 2978 3007 3025 3042 3059 3076 3094 3112 3131 3148 3165 3182 3198 3213 3232 3250 3259 3248 3231 3214 3194 3163 3133 3103 3064 3023 2984 2948 2912 2863 2804 2779 2753 2737 2733 2739 2754 2764 2771 2783 2795 2801 2800 2734 2681 2642 2602 2558 2513 2500 2499 2516 2544 2567 2579 2587 2589 2590 2589 2584 2571 2556 2536 2506 2456 2404 2401 2421 2457 2470 2476 2481 2467 2452 2435 2418 2404 2363 2315 2271 2228 2180 2114 2062 2024 2019 2035 2047 2057 2068 2073 2072 2061 2044 2021 1995 1970 1943 1915 1879 1826 1781 1726 1738 1775 1803 1811 1802 1776 1718 1681 1648 1637 1657 1691 1737 1794 1840 1884 1927 1970 2008 2039 2070 2100 2124 2149 2172 2197 2222 2247 2272 2297 2384 2404 2397 2385 2357 2326 2300 2278 2255 2231 2208 2183 2158 2133 2107 2079 2052 2026 1999 1966 1933 1901 1864 1829 1799 1753 1705 1650 1607 1630 1667 1699 1701 1692 1666 1631 1595 1591 1627 1680 1725 1765 1804 1836 1866 1889 1899 1894 1880 1866 1842 1806 1799 1800 1803 1827 1856 1873 1873 1858 1832 1807 1780 1747 1712 1675 1638 1624 9999
2880 2903 2941 2977 3006 3024 3042 3060 3077 3095 3114 3133 3151 3169 3187 3203 3219 3237 3250 3254 3249 3233 3213 3196 3167 3138 3110 3072 3026 2984 2942 2907 2860 2808 2794 2782 2789 2789 2800 2812 2819 2819 2828 2827 2819 2811 2784 2710 2667 2615 2568 2525 2511 2533 2554 2579 2600 2616 2625 2624 2622 2618 2609 2596 2579 2558 2516 2477 2452 2481 2502 2508 2507 2506 2487 2471 2454 2438 2422 2406 2357 2298 2255 2213 2158 2099 2059 2039 2054 2080 2098 2109 2113 2114 2111 2097 2075 2048 2021 1994 1967 1938 1911 1865 1812 1753 1711 1720 1762 1779 1782 1760 1714 1679 1642 1633 1653 1689 1735 1788 1835 1882 1929 1975 2013 2043 2073 2103 2128 2153 2177 2201 2225 2249 2273 2297 2378 2400 2388 2368 2338 2310 2290 2272 2253 2233 2212 2189 2164 2138 2112 2086 2059 2034 2007 1975 1942 1909 1874 1845 1816 1778 1733 1686 1635 1603 1613 1638 1661 1660 1644 1615 1585 1580 1618 1669 1716 1756 1795 1826 1853 1871 1877 1870 1854 1840 1818 1798 1798 1799 1800 1818 1842 1864 1862 1844 1821 1799 1771 1742 1711 1681 1646 1630 9999
2870 2903 2940 2976 3007 3025 3043 3062 3080 3098 3117 3137 3156 3175 3194 3208 3226 3238 3245 3247 3241 3226 3209 3192 3164 3137 3110 3072 3030 2989 2947 2909 2874 2841 2832 2838 2852 2853 2859 2864 2869 2870 2869 2858 2845 2826 2806 2752 2684 2627 2583 2559 2556 2576 2594 2620 2644 2658 2666 2658 2653 2646 2632 2617 2605 2584 2547 2506 2504 2516 2528 2530 2522 2505 2489 2472 2455 2437 2420 2403 2348 2287 2242 2198 2138 2095 2078 2084 2104 2123 2144 2154 2160 2158 2146 2126 2101 2072 2043 2016 1985 1955 1925 1890 1840 1794 1742 1705 1717 1735 1750 1734 1703 1670 1635 1629 1652 1689 1730 1779 1829 1880 1930 1981 2017 2045 2074 2102 2127 2153 2179 2203 2227 2249 2272 2296 2352 2370 2363 2343 2316 2294 2276 2260 2243 2226 2211 2191 2167 2142 2118 2095 2069 2042 2014 1983 1950 1918 1888 1859 1828 1799 1753 1705 1660 1612 1598 1595 1613 1628 1622 1599 1568 1576 1616 1662 1707 1747 1788 1818 1836 1850 1853 1844 1829 1814 1796 1782 1785 1794 1800 1819 1845 1862 1862 1836 1815 1793 1766 1738 1710 1687 1659 1641 9999
2873 2905 2944 2984 3010 3028 3046 3064 3083 3101 3121 3141 3161 3180 3199 3212 3225 3233 3236 3235 3232 3222 3206 3188 3162 3137 3112 3081 3040 3001 2961 2928 2904 2898 2898 2903 2909 2908 2909 2910 2910 2908 2902 2885 2865 2842 2818 2776 2691 2637 2599 2593 2593 2618 2647 2673 2688 2699 2701 2689 2682 2670 2653 2635 2617 2602 2573 2540 2536 2546 2556 2548 2529 2503 2486 2469 2452 2434 2417 2400 2336 2278 2228 2183 2133 2100 2099 2119 2143 2166 2189 2200 2202 2194 2176 2151 2121 2092 2062 2029 1997 1967 1937 1908 1865 1821 1773 1713 1696 1699 1716 1708 1678 1643 1616 1623 1653 1687 1728 1777 1827 1874 1923 1978 2016 2045 2074 2102 2127 2150 2174 2199 2221 2243 2266 2290 2318 2328 2327 2317 2299 2277 2259 2244 2230 2216 2204 2192 2170 2148 2126 2104 2078 2049 2020 1990 1959 1929 1900 1869 1841 1816 1784 1739 1699 1653 1600 1578 1580 1595 1596 1577 1551 1572 1614 1656 1698 1738 1775 1802 1818 1828 1829 1819 1804 1789 1772 1758 1761 1774 1791 1817 1846 1858 1854 1835 1810 1790 1766 1740 1714 1694 1671 1654 9999
2877 2911 2944 2979 3006 3024 3043 3063 3082 3101 3121 3142 3164 3183 3201 3209 3216 3220 3222 3223 3221 3215 3203 3186 3163 3139 3117 3095 3056 3017 2988 2962 2944 2937 2933 2938 2936 2936 2946 2946 2937 2933 2919 2901 2876 2849 2825 2803 2699 2659 2623 2616 2635 2662 2691 2717 2727 2733 2731 2718 2706 2689 2669 2647 2626 2607 2588 2579 2577 2577 2570 2557 2527 2501 2483 2466 2448 2431 2414 2390 2326 2266 2212 2157 2116 2115 2133 2157 2181 2203 2220 2226 2228 2219 2196 2167 2137 2107 2076 2043 2011 1980 1950 1921 1886 1841 1796 1747 1699 1694 1689 1668 1641 1612 1601 1619 1649 1679 1716 1773 1823 1868 1915 1968 2011 2038 2066 2095 2118 2137 2159 2184 2209 2231 2251 2268 2294 2303 2303 2298 2282 2261 2241 2225 2216 2205 2200 2185 2165 2144 2123 2106 2083 2052 2021 1991 1962 1935 1906 1877 1850 1823 1795 1757 1724 1691 1636 1589 1562 1554 1555 1541 1542 1560 1599 1640 1685 1723 1754 1780 1799 1807 1805 1795 1781 1765 1744 1730 1730 1743 1778 1812 1840 1854 1840 1819 1801 1788 1770 1748 1724 1701 1682 1667 9999
2884 2915 2948 2980 3007 3025 3043 3062 3081 3100 3120 3141 3165 3185 3199 3201 3203 3206 3205 3207 3208 3205 3197 3181 3161 3139 3118 3102 3082 3049 3020 2999 2987 2974 2969 2969 2966 2965 2973 2975 2963 2949 2925 2899 2876 2854 2832 2811 2752 2682 2653 2654 2678 2707 2736 2753 2765 2772 2764 2747 2724 2699 2676 2653 2630 2608 2595 2588 2582 2577 2569 2555 2519 2496 2481 2464 2447 2429 2412 2381 2316 2252 2194 2142 2121 2142 2172 2195 2212 2230 2247 2253 2253 2239 2209 2178 2149 2118 2086 2054 2023 1993 1964 1933 1903 1860 1816 1768 1718 1691 1667 1636 1603 1596 1597 1611 1640 1674 1715 1779 1826 1869 1910 1956 1995 2023 2050 2074 2096 2116 2133 2157 2189 2206 2214 2236 2266 2295 2295 2277 2260 2240 2221 2206 2201 2192 2178 2163 2148 2131 2114 2102 2084 2054 2026 1998 1968 1938 1907 1879 1853 1828 1805 1774 1744 1715 1675 1621 1584 1560 1541 1535 1537 1562 1592 1630 1670 1707 1737 1758 1774 1780 1777 1768 1757 1742 1722 1704 1698 1721 1768 1806 1832 1837 1819 1802 1798 1793 1782 1764 1742 1712 1692 1679 9999
2895 2922 2951 2984 3009 3028 3047 3065 3083 3102 3124 3148 3171 3185 3185 3180 3181 3185 3185 3190 3193 3191 3183 3170 3154 3134 3115 3102 3100 3078 3049 3021 3007 3002 2999 2995 2989 2984 2984 2979 2959 2937 2914 2893 2871 2849 2827 2804 2755 2697 2683 2689 2716 2760 2782 2789 2791 2784 2771 2751 2722 2697 2670 2643 2618 2598 2588 2577 2569 2562 2554 2543 2512 2491 2475 2460 2445 2429 2412 2380 2292 2229 2181 2153 2163 2194 2207 2221 2239 2257 2274 2280 2279 2263 2227 2191 2159 2126 2094 2063 2034 2006 1977 1946 1916 1880 1835 1789 1739 1692 1657 1618 1597 1591 1592 1600 1635 1672 1715 1780 1817 1853 1893 1928 1955 2003 2025 2032 2055 2077 2096 2119 2154 2193 2198 2208 2255 2296 2286 2255 2236 2216 2197 2173 2155 2131 2130 2129 2127 2116 2105 2099 2089 2063 2032 2004 1974 1941 1908 1882 1859 1836 1815 1790 1760 1731 1705 1664 1618 1588 1558 1533 1534 1562 1592 1625 1661 1694 1717 1733 1746 1751 1746 1739 1731 1719 1703 1685 1695 1718 1762 1796 1809 1806 1795 1786 1788 1792 1793 1783 1764 1730 1703 1691 9999
2903 2930 2957 2985 3009 3028 3048 3067 3086 3106 3131 3157 3173 3177 3166 3155 3152 3155 3162 3169 3171 3171 3164 3155 3143 3127 3112 3101 3100 3089 3058 3024 3020 3011 3001 3000 2996 2981 2969 2959 2938 2916 2898 2879 2860 2841 2820 2796 2757 2721 2705 2720 2760 2801 2806 2798 2781 2764 2745 2724 2702 2678 2651 2624 2599 2589 2578 2568 2557 2545 2535 2525 2506 2488 2472 2457 2441 2425 2409 2361 2279 2220 2189 2188 2206 2224 2232 2245 2265 2284 2299 2302 2303 2285 2242 2199 2166 2133 2100 2071 2043 2016 1987 1956 1927 1899 1854 1809 1761 1715 1674 1631 1597 1587 1586 1596 1623 1662 1705 1749 1789 1822 1854 1883 1901 1899 1964 1990 2006 2025 2057 2090 2117 2173 2197 2223 2271 2294 2275 2229 2211 2192 2164 2138 2112 2081 2073 2087 2097 2102 2100 2103 2085 2062 2035 2007 1975 1939 1905 1882 1861 1841 1821 1801 1772 1745 1723 1702 1662 1624 1583 1537 1533 1554 1586 1615 1647 1675 1693 1707 1717 1722 1716 1709 1703 1693 1667 1657 1686 1720 1759 1783 1792 1785 1773 1766 1768 1782 1792 1790 1777 1751 1719 1697 9999
2906 2933 2959 2985 3009 3029 3049 3069 3089 3109 3135 3159 3169 3165 3145 3130 3124 3129 3141 3147 3149 3149 3144 3135 3128 3118 3106 3100 3085 3068 3042 3022 3035 3021 3003 3000 2991 2963 2940 2925 2912 2894 2875 2858 2842 2826 2808 2789 2760 2729 2714 2734 2786 2813 2806 2778 2749 2726 2710 2694 2672 2649 2624 2600 2591 2581 2570 2558 2547 2536 2525 2512 2498 2484 2468 2452 2436 2419 2404 2339 2280 2240 2219 2222 2245 2254 2258 2265 2278 2294 2310 2316 2312 2292 2248 2203 2169 2135 2101 2073 2046 2020 1995 1968 1940 1912 1874 1828 1784 1740 1696 1649 1599 1588 1584 1594 1599 1624 1683 1726 1765 1797 1806 1845 1888 1898 1919 1963 1993 2011 2051 2087 2121 2197 2217 2260 2284 2279 2243 2205 2183 2162 2134 2106 2065 2022 2001 2029 2045 2064 2078 2081 2069 2051 2031 2008 1977 1940 1902 1881 1860 1840 1821 1804 1782 1761 1736 1713 1690 1651 1614 1566 1532 1549 1581 1600 1628 1650 1664 1673 1684 1690 1681 1672 1665 1650 1629 1643 1689 1722 1746 1764 1773 1763 1750 1741 1741 1758 1777 1785 1785 1771 1741 1706 9999
2910 2934 2957 2981 3004 3026 3049 3071 3092 3112 3134 3155 3155 3140 3124 3108 3099 3109 3120 3125 3127 3127 3124 3115 3108 3103 3092 3070 3044 3021 3013 3018 3048 3030 3004 2993 2970 2938 2912 2897 2884 2867 2847 2833 2819 2805 2790 2773 2753 2728 2714 2726 2779 2797 2773 2739 2709 2692 2676 2658 2637 2615 2599 2594 2586 2575 2563 2551 2539 2528 2516 2504 2493 2480 2465 2449 2432 2416 2399 2335 2295 2284 2282 2288 2292 2284 2281 2277 2248 2242 2299 2296 2295 2274 2236 2200 2168 2136 2103 2078 2052 2028 2006 1979 1950 1921 1887 1844 1803 1759 1715 1662 1604 1587 1582 1595 1599 1623 1670 1714 1766 1795 1806 1850 1887 1910 1942 1976 2000 2034 2069 2096 2194 2224 2251 2271 2265 2236 2209 2180 2154 2133 2105 2062 2017 1985 1980 1984 2006 2029 2045 2050 2043 2031 2019 2006 1983 1943 1902 1878 1856 1834 1815 1800 1792 1765 1736 1712 1700 1664 1628 1597 1585 1580 1581 1589 1606 1623 1631 1634 1638 1637 1635 1627 1626 1617 1623 1644 1696 1714 1729 1742 1748 1740 1731 1717 1714 1726 1745 1768 1782 1781 1746 1712 9999
2917 2939 2960 2982 3004 3027 3050 3072 3095 3117 3140 3150 3143 3122 3106 3086 3081 3087 3098 3104 3107 3107 3103 3094 3083 3074 3060 3037 3008 2994 2989 2996 3028 3005 2988 2968 2944 2916 2889 2870 2852 2836 2818 2804 2791 2778 2765 2753 2741 2722 2708 2713 2747 2733 2704 2687 2673 2658 2642 2623 2602 2591 2592 2590 2584 2571 2558 2545 2533 2521 2509 2498 2488 2477 2465 2447 2429 2413 2392 2340 2308 2315 2328 2333 2331 2314 2292 2249 2204 2174 2169 2174 2168 2157 2156 2156 2143 2127 2100 2073 2051 2029 2009 1983 1954 1926 1900 1860 1814 1769 1726 1672 1607 1586 1580 1595 1628 1661 1699 1733 1784 1807 1837 1887 1921 1944 1974 2005 2041 2079 2113 2165 2212 2239 2254 2251 2222 2196 2175 2153 2128 2104 2065 2018 1983 1956 1942 1945 1970 1995 2013 2022 2018 2012 2006 2001 1976 1936 1898 1870 1843 1821 1804 1800 1774 1748 1721 1704 1695 1649 1612 1591 1575 1559 1554 1566 1582 1593 1596 1598 1597 1598 1599 1600 1605 1620 1641 1665 1690 1704 1713 1721 1725 1719 1712 1698 1687 1697 1715 1738 1768 1781 1758 1718 9999
2927 2950 2971 2991 3011 3033 3056 3079 3101 3122 3139 3142 3127 3108 3085 3062 3041 3040 3053 3075 3089 3083 3079 3069 3056 3044 3030 3009 2985 2966 2960 2972 2982 2977 2966 2948 2923 2896 2870 2844 2825 2807 2787 2768 2754 2744 2737 2722 2719 2711 2701 2699 2695 2683 2668 2653 2639 2624 2609 2591 2574 2569 2580 2587 2583 2572 2554 2540 2528 2515 2503 2490 2480 2472 2462 2451 2431 2411 2390 2362 2345 2357 2372 2372 2371 2349 2320 2275 2215 2156 2102 2095 2092 2087 2092 2100 2100 2087 2076 2056 2037 2018 2002 1983 1959 1934 1910 1876 1831 1786 1739 1687 1624 1588 1578 1597 1636 1677 1720 1764 1804 1839 1871 1909 1944 1973 2001 2035 2073 2110 2156 2201 2218 2231 2228 2211 2191 2166 2141 2119 2098 2063 2020 1986 1957 1924 1905 1905 1929 1957 1979 1999 2001 2001 2000 2000 1961 1914 1881 1844 1820 1807 1798 1774 1738 1711 1700 1696 1669 1610 1600 1580 1555 1534 1522 1534 1550 1561 1569 1581 1595 1596 1598 1600 1612 1629 1649 1670 1690 1700 1701 1706 1708 1700 1685 1666 1652 1667 1690 1717 1760 1786 1768 1722 9999
2937 2960 2982 3003 3022 3043 3066 3087 3107 3126 3130 3120 3108 3092 3060 3034 3012 2998 3014 3037 3057 3057 3054 3045 3031 3016 3001 2983 2957 2934 2931 2944 2952 2952 2944 2928 2907 2882 2855 2827 2803 2781 2754 2729 2714 2707 2707 2693 2683 2682 2675 2666 2658 2649 2634 2619 2605 2589 2573 2556 2540 2541 2562 2578 2581 2573 2556 2536 2521 2510 2499 2481 2464 2458 2455 2447 2436 2419 2398 2388 2386 2399 2409 2405 2400 2377 2339 2296 2232 2171 2112 2072 2040 2027 2025 2027 2038 2031 2035 2028 2016 2003 1994 1978 1959 1939 1918 1895 1848 1801 1752 1710 1654 1591 1575 1596 1637 1683 1726 1772 1813 1852 1888 1923 1959 1993 2022 2052 2089 2127 2165 2195 2205 2207 2199 2180 2159 2137 2112 2084 2056 2020 1988 1963 1936 1907 1879 1866 1892 1920 1944 1965 1986 1996 2001 1997 1957 1908 1870 1828 1797 1799 1794 1745 1700 1700 1692 1663 1623 1600 1599 1583 1546 1515 1500 1506 1518 1528 1539 1561 1586 1596 1599 1602 1613 1628 1646 1664 1679 1691 1700 1698 1693 1678 1657 1627 1617 1634 1662 1695 1765 1785 1769 1725 9999
2943 2969 2994 3013 3031 3051 3073 3095 3112 3120 3111 3102 3082 3061 3034 3007 2990 2987 2991 3007 3027 3031 3029 3021 3007 2992 2976 2956 2931 2906 2904 2915 2924 2928 2922 2910 2892 2871 2848 2822 2796 2764 2733 2705 2677 2663 2659 2646 2638 2641 2639 2629 2620 2612 2600 2585 2570 2552 2536 2521 2508 2513 2535 2567 2576 2571 2557 2535 2515 2501 2486 2470 2454 2435 2426 2429 2430 2427 2417 2417 2424 2433 2439 2430 2414 2395 2348 2296 2241 2185 2130 2073 2007 1995 1980 1975 1982 1981 1989 1991 1988 1983 1978 1965 1949 1933 1917 1903 1860 1813 1771 1733 1680 1598 1572 1594 1640 1690 1732 1771 1811 1856 1898 1930 1961 1993 2026 2059 2094 2123 2152 2173 2183 2177 2162 2143 2126 2105 2080 2048 2018 1990 1968 1944 1918 1887 1851 1826 1841 1880 1910 1934 1949 1959 1975 1996 1988 1932 1900 1871 1843 1815 1793 1760 1715 1698 1690 1654 1616 1597 1599 1590 1554 1515 1495 1489 1494 1499 1513 1539 1571 1596 1600 1608 1618 1630 1646 1661 1674 1684 1689 1684 1674 1659 1641 1610 1597 1603 1634 1673 1731 1770 1759 1722 9999
2952 2978 3002 3021 3039 3058 3077 3095 3110 3107 3093 3065 3041 3022 2999 2982 2966 2964 2973 2990 3002 3007 3007 2998 2986 2970 2954 2933 2908 2894 2885 2886 2898 2906 2902 2895 2880 2863 2843 2821 2798 2764 2729 2700 2654 2626 2607 2597 2594 2598 2602 2592 2583 2575 2566 2551 2538 2518 2499 2492 2495 2502 2522 2548 2566 2565 2553 2531 2509 2491 2472 2456 2440 2426 2410 2405 2417 2439 2454 2458 2467 2471 2471 2455 2430 2403 2354 2298 2249 2198 2144 2088 2013 1981 1950 1929 1936 1939 1947 1951 1952 1955 1955 1948 1935 1922 1910 1900 1868 1829 1788 1744 1698 1622 1574 1588 1637 1689 1729 1764 1800 1849 1898 1928 1959 1992 2026 2060 2092 2117 2137 2149 2150 2142 2126 2105 2087 2069 2043 2012 1989 1970 1949 1926 1901 1866 1828 1798 1800 1829 1869 1903 1910 1916 1933 1974 1996 1979 1946 1913 1885 1855 1825 1798 1756 1715 1693 1670 1643 1630 1614 1599 1572 1529 1494 1480 1474 1481 1497 1524 1557 1586 1602 1611 1621 1634 1648 1660 1670 1677 1679 1673 1660 1643 1626 1604 1579 1579 1608 1651 1693 1725 1737 1715 9999
2957 2984 3007 3026 3045 3063 3082 3098 3102 3088 3056 3025 3000 2986 2971 2953 2938 2939 2953 2972 2987 2994 2987 2977 2966 2951 2933 2913 2889 2869 2854 2848 2857 2870 2876 2876 2864 2851 2835 2818 2799 2768 2738 2707 2654 2602 2585 2556 2540 2545 2553 2551 2543 2536 2533 2518 2504 2490 2473 2468 2475 2493 2514 2534 2551 2553 2538 2516 2498 2478 2458 2441 2426 2411 2398 2396 2407 2437 2466 2487 2501 2501 2496 2471 2440 2413 2372 2300 2255 2209 2156 2100 2043 1990 1940 1901 1900 1900 1905 1911 1916 1925 1928 1927 1919 1911 1902 1900 1873 1835 1798 1750 1699 1635 1581 1577 1624 1677 1721 1760 1800 1844 1888 1924 1958 1992 2024 2055 2082 2103 2115 2120 2117 2108 2093 2071 2050 2030 2007 1986 1967 1948 1928 1907 1877 1843 1806 1795 1791 1793 1817 1850 1864 1875 1892 1916 1962 1993 1980 1948 1915 1890 1858 1828 1801 1758 1722 1695 1676 1658 1640 1620 1599 1551 1499 1484 1466 1463 1484 1511 1545 1580 1603 1613 1624 1637 1650 1660 1667 1671 1671 1664 1650 1633 1616 1601 1552 1540 1584 1627 1669 1699 1707 1705 9999
2953 2982 3010 3031 3053 3073 3088 3101 3084 3054 3021 2992 2973 2956 2940 2923 2911 2916 2936 2955 2968 2974 2969 2958 2946 2932 2914 2895 2871 2846 2823 2811 2817 2830 2847 2853 2846 2835 2824 2812 2800 2770 2739 2708 2660 2607 2576 2529 2500 2496 2501 2509 2507 2499 2499 2487 2475 2464 2446 2441 2452 2478 2501 2519 2533 2534 2520 2502 2482 2462 2443 2425 2410 2393 2369 2381 2408 2438 2469 2497 2507 2511 2501 2477 2449 2418 2378 2297 2255 2212 2158 2101 2056 2014 1967 1910 1899 1890 1867 1864 1874 1891 1902 1905 1906 1901 1900 1900 1873 1838 1806 1760 1709 1648 1591 1565 1599 1660 1717 1757 1793 1838 1887 1924 1957 1990 2017 2043 2066 2084 2091 2090 2084 2073 2058 2037 2016 1996 1981 1965 1947 1928 1907 1883 1854 1821 1792 1779 1770 1772 1783 1797 1818 1833 1863 1900 1942 1977 1987 1964 1935 1910 1883 1853 1823 1790 1752 1723 1702 1682 1661 1639 1615 1577 1532 1496 1468 1452 1467 1499 1535 1577 1603 1612 1623 1636 1648 1658 1664 1668 1667 1660 1647 1630 1614 1601 1557 1520 1554 1604 1644 1673 1683 1677 9999
2937 2978 3010 3040 3065 3082 3091 3086 3058 3025 2993 2970 2947 2929 2911 2895 2895 2901 2919 2936 2948 2955 2951 2939 2926 2912 2896 2877 2856 2829 2803 2790 2788 2801 2820 2829 2827 2820 2812 2804 2796 2768 2738 2708 2666 2622 2581 2532 2495 2471 2463 2469 2479 2472 2470 2458 2448 2437 2419 2415 2431 2459 2483 2501 2514 2514 2505 2487 2464 2444 2425 2408 2387 2355 2344 2381 2415 2444 2474 2500 2513 2514 2503 2477 2443 2409 2352 2291 2254 2214 2168 2114 2069 2033 1997 1934 1896 1871 1831 1811 1824 1835 1845 1860 1877 1888 1890 1874 1849 1823 1802 1767 1717 1662 1599 1562 1587 1652 1714 1749 1784 1828 1876 1915 1947 1977 2004 2027 2047 2062 2065 2061 2051 2037 2024 2003 1987 1972 1957 1940 1925 1908 1884 1858 1831 1801 1775 1755 1745 1745 1754 1776 1796 1813 1861 1900 1923 1952 1978 1971 1947 1922 1898 1867 1837 1806 1769 1744 1721 1701 1678 1653 1626 1600 1557 1510 1478 1446 1448 1482 1516 1561 1601 1609 1620 1632 1643 1653 1660 1665 1665 1658 1646 1630 1615 1603 1571 1524 1514 1571 1623 1645 1649 1642 9999
2933 2976 3010 3040 3071 3086 3088 3068 3035 3005 2977 2950 2925 2904 2885 2873 2873 2884 2904 2918 2930 2937 2932 2922 2908 2893 2878 2860 2841 2819 2791 2763 2757 2774 2792 2806 2811 2807 2802 2800 2790 2765 2740 2712 2678 2637 2595 2546 2502 2469 2438 2431 2443 2443 2436 2429 2421 2410 2401 2399 2414 2439 2464 2484 2495 2492 2482 2467 2445 2424 2406 2381 2350 2320 2333 2386 2420 2452 2486 2500 2513 2514 2502 2474 2438 2403 2340 2286 2253 2219 2178 2124 2080 2046 2012 1959 1900 1867 1820 1798 1798 1795 1795 1799 1809 1820 1829 1828 1815 1802 1794 1762 1718 1676 1605 1563 1579 1634 1705 1741 1776 1818 1870 1912 1941 1968 1994 2012 2026 2037 2039 2033 2021 2004 1991 1978 1962 1947 1938 1919 1900 1881 1858 1833 1809 1781 1753 1730 1718 1716 1726 1755 1785 1821 1875 1909 1933 1955 1970 1970 1952 1925 1902 1872 1841 1811 1782 1757 1736 1714 1690 1664 1637 1611 1572 1530 1495 1458 1434 1454 1494 1538 1583 1605 1614 1625 1637 1647 1655 1662 1664 1658 1645 1630 1616 1604 1572 1525 1499 1521 1592 1615 1615 1607 9999
2941 2976 3009 3038 3069 3084 3081 3058 3025 2998 2965 2935 2908 2880 2859 2843 2843 2860 2885 2903 2913 2918 2915 2904 2892 2878 2862 2844 2825 2805 2772 2735 2723 2738 2757 2779 2797 2800 2800 2800 2782 2760 2737 2714 2684 2644 2604 2561 2519 2483 2440 2425 2418 2418 2409 2400 2399 2388 2382 2392 2401 2426 2448 2465 2473 2467 2455 2442 2423 2403 2372 2338 2316 2313 2336 2384 2424 2485 2544 2524 2508 2509 2498 2468 2432 2395 2328 2280 2246 2212 2173 2130 2090 2056 2020 1977 1922 1880 1847 1814 1794 1774 1768 1773 1782 1782 1781 1778 1770 1761 1756 1741 1714 1689 1608 1594 1587 1616 1695 1733 1768 1806 1862 1908 1934 1959 1983 2001 2007 2015 2015 2006 1994 1977 1964 1953 1937 1922 1914 1901 1873 1850 1829 1805 1784 1760 1732 1706 1695 1695 1708 1747 1790 1838 1893 1920 1941 1960 1967 1965 1948 1923 1902 1874 1845 1817 1790 1767 1745 1722 1699 1672 1644 1617 1585 1546 1509 1469 1431 1435 1477 1517 1559 1600 1610 1619 1630 1640 1651 1661 1665 1661 1649 1633 1618 1605 1573 1530 1498 1496 1525 1573 1576 1571 9999
2951 2982 3011 3042 3072 3081 3067 3038 3015 2990 2960 2926 2893 2861 2833 2814 2814 2834 2864 2887 2902 2902 2898 2890 2879 2865 2849 2832 2813 2788 2749 2711 2700 2703 2728 2750 2770 2788 2799 2792 2777 2758 2735 2713 2687 2649 2612 2573 2535 2497 2461 2444 2427 2410 2400 2399 2391 2369 2355 2362 2386 2411 2431 2445 2451 2440 2428 2415 2400 2364 2328 2303 2301 2323 2359 2392 2433 2495 2546 2555 2500 2500 2483 2456 2425 2384 2317 2272 2235 2199 2165 2131 2096 2060 2024 1982 1932 1887 1854 1820 1793 1770 1754 1755 1757 1749 1732 1727 1717 1711 1708 1706 1699 1658 1603 1586 1583 1599 1677 1725 1760 1795 1848 1901 1925 1950 1972 1990 2000 1999 1991 1979 1967 1951 1937 1926 1914 1898 1885 1874 1848 1823 1799 1780 1759 1737 1713 1687 1668 1678 1705 1760 1810 1855 1901 1925 1940 1952 1959 1958 1945 1923 1902 1876 1849 1823 1797 1774 1750 1727 1703 1676 1647 1618 1587 1551 1516 1478 1432 1422 1456 1499 1540 1582 1604 1613 1623 1634 1647 1660 1667 1666 1656 1641 1624 1606 1576 1538 1499 1469 1486 1523 1535 1540 9999
2965 2991 3016 3048 3074 3078 3064 3034 3006 2978 2949 2921 2887 2843 2812 2799 2800 2817 2845 2871 2890 2892 2888 2877 2867 2853 2837 2820 2802 2768 2730 2699 2699 2698 2702 2725 2748 2772 2789 2785 2772 2753 2735 2716 2696 2658 2621 2583 2544 2504 2480 2459 2435 2420 2403 2399 2382 2353 2327 2323 2347 2394 2414 2427 2427 2414 2402 2381 2354 2321 2292 2294 2308 2338 2368 2398 2422 2447 2476 2495 2484 2482 2466 2441 2414 2368 2300 2264 2228 2192 2157 2127 2096 2058 2020 1979 1933 1890 1858 1827 1797 1771 1751 1751 1746 1727 1704 1697 1674 1656 1649 1654 1651 1622 1585 1549 1551 1593 1660 1716 1751 1788 1836 1891 1918 1938 1956 1972 1980 1973 1963 1953 1941 1925 1911 1899 1887 1870 1851 1837 1817 1796 1776 1756 1736 1715 1690 1656 1649 1676 1715 1783 1829 1868 1903 1920 1930 1941 1950 1950 1941 1919 1900 1874 1847 1819 1794 1772 1749 1726 1704 1676 1647 1619 1588 1555 1522 1488 1441 1416 1438 1480 1515 1556 1597 1608 1617 1630 1646 1660 1668 1670 1664 1650 1628 1608 1579 1543 1506 1461 1450 1480 1499 1511 9999
2979 3001 3026 3057 3073 3072 3053 3023 2997 2965 2934 2904 2870 2828 2798 2794 2796 2802 2830 2860 2884 2889 2883 2868 2854 2843 2828 2809 2785 2751 2717 2696 2690 2686 2687 2704 2729 2761 2780 2781 2771 2753 2732 2714 2697 2662 2628 2592 2554 2518 2492 2471 2449 2429 2412 2398 2376 2344 2313 2294 2303 2334 2381 2406 2404 2382 2360 2339 2313 2280 2250 2277 2313 2343 2373 2403 2425 2448 2467 2478 2481 2472 2453 2428 2403 2345 2286 2248 2214 2183 2150 2116 2081 2044 2007 1966 1920 1885 1855 1824 1796 1769 1755 1756 1755 1736 1709 1699 1678 1647 1620 1610 1614 1594 1570 1534 1538 1583 1644 1710 1747 1780 1824 1879 1910 1924 1938 1951 1953 1944 1933 1926 1914 1899 1882 1869 1857 1841 1823 1805 1788 1772 1753 1732 1712 1690 1650 1627 1646 1690 1733 1803 1843 1882 1904 1910 1910 1918 1930 1939 1932 1913 1895 1870 1844 1818 1793 1770 1749 1727 1705 1678 1649 1619 1590 1559 1529 1497 1453 1414 1420 1454 1494 1534 1573 1602 1613 1628 1645 1660 1670 1672 1669 1654 1632 1608 1577 1542 1507 1460 1425 1430 1456 1479 9999
2992 3012 3038 3063 3071 3063 3038 3012 2986 2954 2922 2889 2851 2813 2780 2769 2777 2791 2818 2850 2874 2882 2878 2863 2843 2830 2818 2803 2771 2737 2704 2682 2669 2663 2666 2685 2710 2747 2768 2772 2766 2750 2730 2713 2699 2666 2633 2599 2562 2526 2494 2473 2455 2439 2421 2406 2385 2349 2313 2296 2282 2288 2301 2343 2349 2337 2316 2298 2279 2227 2228 2281 2319 2348 2378 2407 2434 2461 2483 2496 2496 2478 2450 2420 2387 2330 2278 2235 2196 2166 2136 2105 2065 2025 1983 1937 1897 1870 1838 1811 1793 1779 1768 1778 1780 1767 1749 1736 1719 1698 1669 1639 1615 1587 1554 1529 1527 1568 1624 1702 1737 1771 1811 1867 1900 1909 1919 1926 1924 1915 1904 1898 1887 1873 1855 1839 1826 1813 1795 1778 1762 1746 1729 1709 1685 1649 1616 1619 1663 1708 1757 1809 1849 1885 1902 1900 1889 1904 1917 1927 1921 1906 1885 1862 1840 1816 1791 1767 1744 1722 1700 1675 1649 1620 1591 1560 1530 1499 1456 1414 1408 1436 1480 1516 1553 1590 1608 1623 1639 1656 1666 1671 1674 1660 1634 1602 1573 1544 1513 1476 1430 1415 1428 1447 9999
3003 3022 3049 3065 3066 3050 3022 3000 2972 2942 2911 2876 2840 2804 2756 2728 2733 2765 2799 2827 2856 2867 2866 2854 2836 2819 2807 2789 2759 2725 2692 2666 2642 2634 2640 2662 2689 2718 2750 2758 2755 2743 2726 2710 2697 2665 2632 2599 2563 2527 2497 2481 2464 2445 2426 2410 2396 2362 2331 2302 2277 2259 2263 2282 2291 2291 2283 2267 2245 2212 2227 2289 2323 2353 2383 2413 2441 2468 2493 2505 2502 2485 2452 2421 2376 2318 2268 2223 2185 2154 2124 2090 2045 2003 1952 1905 1867 1836 1819 1808 1800 1796 1796 1802 1807 1803 1794 1787 1761 1736 1711 1688 1643 1601 1572 1532 1516 1553 1602 1678 1725 1761 1798 1854 1893 1900 1903 1903 1896 1889 1877 1868 1860 1846 1829 1812 1796 1784 1767 1752 1736 1719 1703 1682 1653 1622 1605 1630 1680 1725 1774 1813 1839 1860 1861 1853 1853 1885 1907 1916 1911 1900 1878 1853 1831 1810 1786 1760 1734 1711 1689 1666 1643 1619 1592 1561 1530 1500 1458 1415 1404 1423 1464 1499 1534 1567 1599 1612 1624 1632 1644 1656 1672 1671 1631 1591 1562 1536 1508 1486 1457 1426 1411 1420 9999
3012 3035 3054 3063 3058 3037 3012 2987 2958 2929 2899 2861 2825 2789 2738 2699 2704 2732 2765 2789 2819 2842 2846 2839 2825 2810 2796 2772 2747 2715 2682 2654 2625 2608 2616 2638 2670 2698 2725 2739 2737 2730 2719 2707 2690 2661 2631 2600 2565 2532 2499 2481 2461 2441 2423 2407 2400 2372 2344 2318 2292 2254 2235 2234 2250 2266 2258 2244 2215 2206 2235 2286 2323 2355 2388 2419 2448 2477 2501 2511 2509 2492 2448 2405 2359 2301 2249 2199 2167 2137 2108 2070 2022 1971 1918 1877 1835 1818 1823 1837 1846 1850 1855 1861 1866 1853 1838 1820 1794 1766 1736 1706 1660 1627 1591 1537 1510 1535 1585 1653 1712 1751 1790 1829 1863 1881 1882 1875 1869 1863 1852 1840 1831 1819 1803 1785 1767 1752 1738 1724 1710 1694 1675 1654 1623 1602 1607 1651 1695 1730 1772 1801 1816 1820 1809 1799 1818 1856 1897 1905 1901 1886 1867 1844 1820 1796 1770 1748 1723 1698 1676 1654 1631 1611 1587 1557 1528 1498 1456 1412 1400 1415 1448 1483 1512 1544 1572 1592 1604 1613 1621 1634 1671 1663 1606 1573 1530 1505 1500 1488 1463 1432 1408 1400 9999
3019 3042 3057 3059 3048 3025 3003 2976 2946 2918 2885 2846 2808 2761 2710 2699 2698 2700 2728 2758 2789 2808 2817 2818 2811 2802 2785 2759 2733 2707 2677 2645 2614 2598 2601 2627 2655 2680 2702 2718 2718 2714 2708 2700 2677 2650 2626 2596 2554 2513 2488 2472 2453 2434 2416 2402 2390 2370 2350 2329 2307 2278 2231 2217 2224 2241 2234 2220 2199 2198 2223 2283 2324 2358 2393 2424 2455 2485 2504 2515 2512 2500 2446 2391 2337 2281 2229 2183 2149 2117 2080 2040 1995 1936 1895 1858 1844 1847 1858 1879 1896 1905 1908 1902 1900 1895 1873 1842 1808 1777 1744 1711 1674 1634 1590 1531 1501 1512 1563 1633 1696 1739 1782 1817 1843 1857 1856 1848 1841 1836 1826 1814 1803 1790 1774 1756 1740 1722 1708 1695 1684 1668 1650 1628 1601 1597 1620 1674 1701 1722 1758 1783 1791 1784 1778 1793 1799 1835 1876 1893 1887 1870 1852 1833 1812 1782 1749 1725 1708 1686 1661 1641 1621 1603 1587 1556 1524 1489 1442 1402 1402 1421 1450 1472 1490 1511 1528 1544 1559 1581 1595 1617 1676 1639 1597 1570 1528 1501 1500 1497 1484 1454 1422 1400 9999
3026 3047 3055 3053 3035 3014 2995 2963 2931 2902 2869 2832 2793 2742 2699 2692 2689 2690 2698 2729 2756 2777 2794 2800 2796 2788 2773 2750 2723 2696 2666 2636 2605 2583 2589 2613 2638 2663 2684 2698 2703 2701 2691 2675 2657 2633 2609 2575 2527 2492 2473 2455 2438 2421 2406 2395 2383 2369 2353 2334 2316 2295 2247 2225 2215 2220 2213 2201 2190 2190 2223 2281 2325 2362 2399 2429 2459 2489 2506 2516 2511 2500 2431 2372 2316 2259 2204 2168 2133 2099 2046 2001 1960 1909 1898 1887 1891 1901 1910 1917 1927 1932 1928 1914 1903 1900 1886 1849 1806 1778 1748 1717 1676 1624 1575 1521 1498 1497 1516 1607 1672 1723 1766 1802 1823 1833 1831 1820 1814 1809 1800 1785 1771 1759 1744 1725 1711 1696 1684 1673 1659 1644 1625 1603 1578 1593 1633 1685 1701 1712 1739 1754 1746 1723 1735 1769 1797 1829 1852 1866 1869 1849 1835 1817 1797 1761 1726 1698 1678 1661 1644 1626 1610 1600 1583 1552 1519 1480 1426 1397 1404 1421 1439 1455 1470 1482 1490 1495 1499 1500 1536 1585 1651 1659 1604 1583 1556 1536 1519 1505 1501 1478 1443 1407 9999
3032 3049 3052 3044 3022 3004 2979 2950 2919 2887 2852 2817 2775 2723 2686 2665 2655 2658 2678 2702 2726 2748 2765 2775 2774 2768 2758 2741 2718 2690 2659 2629 2599 2563 2563 2597 2625 2649 2667 2677 2682 2676 2661 2646 2632 2613 2581 2540 2497 2474 2456 2438 2421 2405 2398 2390 2380 2367 2352 2337 2319 2304 2276 2249 2226 2210 2199 2195 2172 2184 2223 2280 2326 2366 2404 2433 2463 2491 2506 2513 2508 2485 2398 2348 2295 2232 2183 2149 2114 2069 2015 1989 1950 1910 1909 1925 1933 1943 1949 1954 1960 1963 1949 1928 1909 1901 1876 1831 1793 1766 1739 1712 1659 1599 1562 1517 1496 1493 1497 1569 1648 1708 1746 1780 1801 1808 1806 1793 1784 1776 1766 1751 1736 1726 1714 1696 1687 1677 1664 1651 1640 1623 1603 1565 1563 1601 1641 1683 1699 1705 1718 1716 1700 1699 1716 1757 1795 1812 1822 1829 1832 1828 1813 1803 1769 1730 1696 1673 1643 1616 1619 1609 1599 1592 1569 1543 1514 1469 1412 1398 1398 1408 1421 1434 1446 1456 1465 1476 1489 1500 1537 1575 1629 1681 1646 1614 1593 1578 1560 1544 1524 1499 1461 1415 9999
3038 3047 3046 3033 3014 2995 2963 2934 2906 2874 2839 2804 2760 2711 2673 2638 2620 2623 2652 2677 2701 2721 2738 2748 2751 2748 2740 2728 2709 2682 2651 2621 2589 2543 2541 2587 2616 2635 2648 2653 2653 2647 2630 2616 2603 2581 2538 2499 2476 2452 2437 2420 2402 2389 2388 2385 2378 2366 2352 2337 2321 2308 2292 2262 2232 2206 2183 2163 2152 2176 2216 2276 2323 2365 2403 2431 2458 2483 2502 2507 2503 2451 2375 2317 2267 2208 2165 2125 2093 2043 2000 1991 1969 1947 1952 1965 1976 1986 1988 1991 1991 1987 1965 1939 1915 1890 1848 1806 1777 1752 1727 1699 1628 1579 1547 1509 1491 1485 1491 1526 1620 1682 1723 1753 1768 1776 1774 1762 1752 1743 1732 1718 1703 1694 1689 1677 1666 1657 1645 1631 1619 1604 1568 1535 1573 1614 1650 1683 1697 1697 1688 1680 1680 1694 1717 1758 1797 1804 1809 1812 1812 1810 1805 1786 1750 1714 1695 1669 1630 1599 1600 1598 1586 1570 1549 1527 1502 1459 1406 1391 1387 1393 1400 1411 1420 1429 1442 1459 1476 1493 1528 1576 1628 1673 1674 1655 1627 1605 1594 1573 1543 1511 1466 1421 9999
3041 3045 3039 3021 3005 2982 2950 2919 2888 2855 2823 2788 2744 2699 2666 2626 2598 2603 2626 2649 2672 2694 2712 2722 2728 2727 2723 2714 2699 2672 2642 2610 2571 2526 2524 2565 2603 2618 2628 2628 2623 2618 2601 2577 2552 2523 2493 2471 2450 2428 2411 2400 2381 2370 2377 2379 2377 2368 2355 2340 2324 2311 2301 2272 2238 2204 2173 2143 2140 2169 2203 2262 2314 2357 2398 2424 2444 2467 2491 2500 2473 2408 2351 2310 2261 2215 2167 2118 2078 2028 2000 1997 1990 1990 1998 2011 2028 2040 2024 2007 2000 1998 1971 1937 1906 1866 1825 1788 1760 1735 1710 1648 1590 1558 1520 1498 1490 1480 1486 1496 1591 1654 1705 1718 1731 1738 1737 1730 1721 1712 1699 1690 1681 1672 1667 1657 1646 1637 1627 1612 1598 1568 1526 1530 1589 1632 1673 1687 1676 1658 1638 1633 1647 1685 1726 1767 1804 1815 1823 1827 1828 1823 1811 1802 1773 1734 1707 1681 1648 1613 1600 1597 1580 1545 1527 1507 1483 1447 1408 1389 1378 1375 1382 1389 1397 1407 1424 1444 1466 1490 1528 1579 1626 1670 1677 1665 1636 1611 1600 1584 1547 1511 1463 1427 9999
3041 3039 3028 3011 2995 2964 2933 2902 2869 2836 2804 2766 2725 2687 2655 2621 2599 2598 2600 2619 2642 2664 2682 2699 2709 2709 2707 2702 2686 2661 2634 2606 2569 2526 2519 2554 2582 2600 2605 2602 2591 2579 2558 2531 2502 2477 2457 2438 2420 2400 2385 2373 2356 2346 2357 2374 2376 2372 2361 2347 2333 2323 2308 2278 2243 2207 2173 2135 2128 2155 2194 2244 2295 2339 2379 2405 2424 2444 2477 2498 2460 2405 2371 2327 2291 2244 2191 2146 2105 2068 2033 2010 2009 2021 2035 2061 2074 2069 2054 2028 2007 1989 1952 1915 1879 1837 1796 1765 1740 1715 1670 1595 1571 1543 1512 1496 1487 1480 1481 1491 1498 1586 1648 1673 1691 1700 1701 1697 1691 1686 1677 1668 1660 1652 1644 1636 1626 1616 1608 1590 1560 1524 1507 1540 1603 1647 1679 1678 1649 1623 1598 1596 1620 1677 1724 1768 1807 1833 1855 1865 1864 1850 1835 1816 1800 1769 1735 1703 1672 1640 1610 1596 1579 1533 1504 1492 1469 1441 1413 1395 1380 1367 1363 1371 1381 1396 1417 1441 1465 1490 1530 1579 1630 1678 1672 1658 1636 1613 1600 1578 1541 1505 1461 1430 9999
3036 3031 3017 3003 2976 2946 2916 2885 2853 2818 2784 2747 2709 2676 2646 2615 2595 2586 2581 2590 2612 2632 2649 2668 2686 2698 2701 2692 2671 2647 2623 2596 2559 2524 2511 2531 2551 2563 2562 2554 2541 2520 2507 2487 2459 2436 2417 2400 2391 2380 2364 2345 2330 2321 2335 2368 2375 2376 2369 2359 2350 2340 2318 2292 2255 2216 2180 2136 2118 2139 2185 2229 2272 2313 2346 2372 2397 2416 2463 2495 2482 2438 2402 2364 2329 2285 2224 2173 2136 2110 2080 2052 2042 2050 2068 2084 2084 2076 2053 2029 2009 1977 1928 1889 1847 1805 1770 1736 1707 1677 1623 1596 1582 1558 1527 1499 1493 1485 1485 1493 1490 1498 1575 1623 1649 1667 1673 1671 1667 1662 1656 1646 1637 1631 1623 1614 1605 1591 1572 1551 1522 1503 1510 1562 1608 1649 1666 1643 1616 1597 1597 1599 1626 1677 1721 1760 1800 1835 1874 1890 1888 1875 1854 1832 1813 1793 1760 1727 1695 1665 1635 1610 1583 1539 1502 1495 1473 1447 1424 1407 1391 1368 1356 1355 1369 1389 1409 1436 1464 1493 1534 1578 1659 1678 1665 1645 1626 1609 1593 1564 1532 1499 1459 1431 9999
3027 3019 3008 2990 2956 2924 2895 2867 2838 2806 2769 2732 2696 2665 2633 2602 2576 2550 2536 2544 2574 2599 2617 2635 2653 2667 2674 2669 2655 2632 2609 2580 2545 2509 2499 2507 2515 2519 2514 2504 2492 2472 2456 2437 2414 2397 2390 2382 2372 2361 2346 2327 2307 2298 2316 2358 2374 2379 2380 2377 2368 2354 2330 2300 2260 2224 2188 2141 2111 2120 2165 2203 2245 2278 2302 2328 2354 2393 2432 2476 2490 2467 2425 2393 2354 2309 2249 2193 2162 2135 2111 2087 2072 2076 2083 2083 2078 2067 2043 2018 2002 1957 1902 1859 1817 1776 1741 1708 1661 1621 1606 1601 1601 1587 1566 1539 1507 1494 1494 1486 1478 1487 1503 1582 1620 1641 1646 1645 1642 1638 1632 1625 1615 1610 1602 1586 1569 1546 1526 1507 1500 1500 1530 1578 1612 1638 1640 1611 1579 1561 1572 1592 1621 1668 1712 1752 1792 1826 1869 1895 1895 1886 1868 1845 1823 1805 1778 1745 1710 1680 1650 1622 1596 1561 1531 1500 1478 1454 1429 1407 1396 1374 1352 1347 1356 1379 1399 1429 1460 1492 1533 1577 1656 1675 1658 1636 1615 1600 1579 1553 1524 1493 1457 1430 9999
3016 3008 3000 2973 2941 2906 2874 2845 2816 2788 2756 2719 2686 2656 2627 2596 2566 2531 2503 2505 2529 2542 2573 2602 2620 2634 2643 2642 2634 2616 2594 2566 2532 2498 2495 2476 2472 2472 2468 2455 2441 2427 2407 2396 2389 2381 2374 2365 2355 2342 2327 2310 2298 2299 2305 2349 2371 2384 2393 2393 2385 2368 2335 2301 2264 2228 2192 2145 2110 2110 2145 2180 2203 2233 2260 2290 2322 2373 2414 2451 2482 2474 2442 2409 2370 2321 2267 2212 2178 2151 2128 2108 2092 2085 2078 2070 2061 2049 2029 2008 1979 1926 1877 1835 1792 1743 1706 1667 1623 1616 1638 1643 1639 1625 1608 1585 1546 1500 1491 1477 1466 1470 1487 1521 1597 1614 1620 1619 1617 1614 1608 1603 1587 1573 1560 1540 1529 1507 1492 1492 1498 1500 1537 1578 1604 1614 1605 1580 1538 1514 1534 1586 1622 1659 1700 1740 1778 1812 1851 1887 1893 1885 1869 1848 1827 1808 1782 1745 1708 1679 1651 1623 1601 1577 1543 1508 1480 1452 1424 1401 1390 1371 1348 1341 1350 1373 1395 1424 1457 1490 1532 1576 1624 1651 1637 1618 1602 1586 1566 1543 1518 1488 1456 1427 9999
3009 3002 2980 2953 2926 2898 2865 2830 2797 2765 2735 2702 2675 2646 2617 2589 2560 2530 2502 2496 2486 2489 2511 2549 2582 2604 2612 2613 2609 2598 2577 2553 2528 2501 2467 2431 2421 2422 2420 2409 2396 2393 2387 2381 2374 2366 2358 2349 2339 2325 2310 2293 2290 2293 2299 2334 2365 2384 2392 2397 2400 2380 2342 2301 2265 2229 2193 2157 2118 2104 2124 2149 2173 2196 2226 2272 2320 2372 2412 2446 2473 2472 2448 2414 2378 2327 2274 2216 2181 2160 2140 2120 2100 2088 2075 2059 2044 2030 2016 2000 1948 1896 1849 1804 1754 1708 1689 1659 1666 1685 1690 1688 1678 1658 1638 1617 1589 1538 1495 1477 1461 1456 1465 1486 1505 1561 1585 1595 1581 1576 1562 1552 1540 1526 1514 1495 1482 1471 1460 1469 1483 1498 1535 1570 1589 1587 1569 1538 1500 1497 1512 1572 1619 1653 1689 1724 1760 1794 1826 1866 1879 1875 1860 1841 1821 1805 1774 1733 1696 1671 1646 1619 1600 1579 1548 1515 1485 1456 1427 1402 1383 1360 1341 1335 1343 1366 1390 1417 1452 1489 1530 1574 1604 1612 1612 1602 1588 1572 1555 1535 1511 1482 1453 1423 9999
3003 2996 2969 2938 2910 2879 2846 2816 2786 2752 2717 2687 2661 2634 2607 2580 2554 2528 2501 2483 2449 2443 2482 2513 2541 2565 2578 2585 2583 2574 2557 2536 2513 2482 2432 2399 2387 2383 2385 2384 2377 2376 2372 2366 2359 2352 2343 2334 2323 2310 2291 2272 2265 2276 2291 2320 2352 2381 2400 2412 2408 2384 2338 2295 2262 2228 2194 2159 2123 2099 2103 2119 2144 2176 2218 2270 2320 2371 2410 2439 2462 2464 2444 2414 2379 2328 2277 2224 2188 2167 2145 2123 2101 2083 2066 2049 2034 2020 2006 1968 1911 1863 1815 1768 1717 1699 1698 1704 1716 1721 1721 1717 1705 1686 1664 1641 1617 1578 1522 1491 1470 1452 1445 1457 1478 1496 1519 1517 1513 1505 1499 1493 1483 1471 1461 1448 1435 1428 1425 1437 1464 1498 1527 1552 1564 1557 1533 1500 1483 1484 1491 1541 1609 1638 1669 1702 1737 1772 1808 1840 1852 1854 1846 1830 1815 1800 1760 1720 1685 1658 1632 1609 1588 1567 1545 1517 1490 1463 1436 1409 1388 1362 1338 1330 1336 1360 1388 1415 1452 1488 1527 1568 1599 1600 1599 1586 1574 1560 1544 1526 1505 1477 1447 1416 9999
3000 2977 2949 2922 2893 2859 2825 2794 2767 2737 2705 2678 2652 2628 2603 2578 2553 2528 2502 2466 2419 2403 2438 2474 2504 2529 2545 2556 2555 2546 2533 2515 2495 2470 2432 2394 2359 2349 2360 2362 2359 2359 2356 2351 2346 2338 2329 2319 2308 2292 2266 2240 2234 2252 2286 2318 2349 2379 2402 2415 2401 2370 2331 2290 2259 2227 2195 2159 2123 2096 2088 2096 2128 2172 2220 2270 2318 2364 2404 2429 2450 2453 2435 2409 2374 2327 2280 2231 2191 2169 2147 2124 2102 2081 2062 2044 2027 2011 1987 1927 1876 1831 1779 1723 1700 1710 1726 1741 1748 1750 1746 1739 1725 1709 1688 1664 1637 1607 1557 1515 1490 1463 1439 1436 1446 1465 1475 1467 1459 1445 1437 1435 1423 1409 1403 1399 1397 1397 1398 1414 1447 1484 1513 1527 1535 1527 1502 1474 1458 1462 1480 1500 1579 1613 1649 1682 1715 1753 1793 1816 1825 1829 1824 1818 1806 1779 1740 1700 1670 1641 1616 1593 1575 1555 1533 1512 1488 1463 1438 1414 1392 1366 1338 1326 1329 1354 1384 1407 1445 1484 1521 1554 1578 1589 1589 1573 1560 1546 1532 1516 1496 1467 1439 1408 9999
2988 2957 2929 2902 2874 2840 2805 2775 2747 2719 2691 2669 2644 2618 2594 2573 2550 2527 2503 2462 2416 2400 2399 2436 2468 2496 2516 2529 2529 2520 2507 2495 2477 2457 2432 2394 2331 2318 2334 2340 2341 2342 2339 2335 2331 2324 2316 2305 2287 2263 2235 2214 2207 2233 2276 2312 2344 2375 2398 2399 2380 2350 2315 2283 2253 2222 2190 2156 2120 2092 2076 2087 2119 2178 2227 2271 2314 2356 2395 2415 2434 2439 2426 2405 2370 2327 2281 2230 2191 2169 2147 2125 2103 2079 2057 2038 2018 2000 1938 1887 1847 1804 1729 1712 1729 1769 1773 1779 1781 1777 1770 1760 1746 1729 1710 1685 1656 1622 1584 1548 1513 1483 1456 1436 1428 1423 1426 1424 1414 1399 1396 1396 1394 1390 1388 1388 1384 1384 1388 1397 1425 1460 1486 1502 1507 1497 1468 1439 1429 1441 1464 1488 1539 1600 1634 1664 1693 1729 1765 1798 1807 1809 1808 1804 1787 1747 1710 1681 1650 1619 1595 1579 1562 1544 1523 1502 1481 1460 1439 1418 1396 1370 1339 1321 1324 1343 1371 1396 1433 1474 1510 1542 1563 1571 1571 1563 1546 1534 1520 1505 1481 1451 1423 1395 9999
2971 2945 2914 2883 2855 2825 2790 2759 2730 2701 2678 2656 2634 2609 2587 2565 2544 2521 2497 2454 2411 2400 2397 2403 2437 2465 2489 2502 2503 2496 2488 2477 2463 2441 2420 2391 2303 2300 2310 2319 2323 2326 2323 2319 2315 2311 2302 2283 2258 2234 2208 2199 2200 2224 2272 2310 2339 2367 2392 2383 2361 2332 2301 2271 2242 2212 2182 2149 2114 2084 2062 2081 2120 2178 2225 2264 2304 2344 2380 2403 2418 2424 2414 2397 2363 2320 2273 2221 2187 2165 2143 2122 2100 2071 2047 2025 2005 1946 1891 1854 1821 1771 1729 1771 1799 1813 1812 1812 1808 1803 1794 1782 1767 1749 1729 1707 1678 1645 1609 1573 1536 1499 1479 1463 1443 1425 1412 1399 1395 1391 1387 1386 1385 1383 1382 1381 1380 1378 1380 1388 1399 1427 1450 1464 1467 1454 1425 1403 1404 1419 1444 1474 1503 1574 1619 1648 1676 1705 1739 1772 1799 1800 1798 1776 1752 1714 1682 1656 1627 1598 1579 1562 1547 1531 1514 1496 1478 1458 1438 1419 1398 1372 1339 1319 1318 1337 1369 1396 1433 1473 1509 1531 1544 1552 1553 1545 1534 1521 1509 1491 1466 1438 1408 1383 9999
2954 2929 2902 2870 2838 2809 2777 2744 2714 2688 2666 2643 2621 2599 2580 2559 2538 2516 2489 2446 2404 2396 2390 2387 2408 2436 2456 2473 2480 2476 2469 2461 2449 2433 2408 2351 2300 2298 2298 2298 2305 2309 2307 2303 2299 2291 2275 2254 2229 2204 2192 2195 2198 2222 2266 2302 2327 2365 2384 2368 2340 2316 2291 2261 2231 2201 2170 2140 2108 2074 2050 2075 2117 2169 2216 2259 2302 2336 2364 2387 2400 2403 2398 2375 2347 2312 2264 2213 2182 2159 2137 2115 2090 2059 2034 2010 1957 1896 1861 1822 1788 1750 1782 1821 1836 1844 1840 1835 1829 1821 1812 1803 1788 1770 1750 1728 1704 1669 1631 1590 1550 1506 1492 1486 1484 1465 1429 1399 1397 1394 1393 1392 1391 1390 1390 1388 1388 1382 1377 1379 1387 1398 1416 1424 1416 1405 1396 1392 1397 1408 1433 1458 1487 1541 1604 1633 1660 1687 1715 1745 1771 1781 1770 1744 1720 1687 1655 1629 1602 1582 1564 1546 1530 1515 1499 1488 1472 1454 1435 1416 1397 1370 1338 1316 1319 1342 1367 1391 1424 1466 1504 1517 1527 1534 1535 1527 1517 1507 1494 1474 1450 1424 1398 1373 9999
2938 2914 2884 2851 2821 2792 2761 2729 2698 2675 2653 2631 2608 2588 2571 2552 2533 2512 2481 2437 2398 2383 2368 2360 2379 2404 2425 2447 2456 2456 2451 2444 2434 2422 2404 2343 2298 2290 2280 2275 2281 2288 2285 2276 2267 2254 2242 2225 2200 2177 2162 2171 2188 2211 2251 2291 2325 2363 2374 2356 2322 2298 2275 2249 2220 2190 2159 2128 2098 2061 2039 2066 2109 2159 2212 2256 2293 2321 2348 2372 2384 2388 2379 2357 2331 2302 2255 2204 2177 2154 2130 2107 2076 2045 2017 1975 1898 1873 1844 1808 1777 1793 1829 1863 1876 1873 1866 1856 1847 1839 1829 1818 1806 1793 1774 1750 1722 1692 1652 1609 1566 1518 1497 1504 1512 1511 1505 1490 1466 1447 1434 1427 1421 1415 1409 1404 1402 1394 1384 1376 1374 1381 1386 1390 1384 1379 1380 1378 1384 1395 1412 1440 1471 1499 1572 1617 1644 1669 1692 1718 1744 1751 1737 1713 1686 1658 1627 1601 1582 1563 1546 1529 1513 1500 1491 1478 1465 1450 1432 1413 1393 1364 1332 1313 1310 1326 1358 1388 1420 1460 1498 1506 1513 1517 1518 1511 1501 1490 1474 1456 1434 1409 1386 1363 9999
2923 2899 2865 2831 2800 2772 2743 2711 2684 2661 2639 2617 2596 2579 2562 2544 2526 2507 2471 2424 2387 2362 2339 2328 2335 2362 2400 2422 2433 2436 2433 2427 2420 2410 2391 2329 2285 2264 2248 2244 2255 2261 2258 2247 2237 2223 2206 2194 2173 2144 2126 2131 2156 2210 2251 2290 2322 2353 2358 2338 2308 2283 2259 2235 2209 2180 2152 2120 2088 2045 2029 2058 2100 2157 2207 2243 2278 2311 2337 2356 2373 2379 2363 2342 2318 2286 2239 2195 2170 2146 2122 2099 2057 2025 1992 1903 1876 1846 1827 1799 1809 1844 1881 1902 1903 1900 1888 1875 1865 1855 1844 1832 1820 1810 1796 1771 1742 1713 1678 1629 1580 1532 1514 1536 1543 1546 1542 1538 1535 1526 1517 1509 1502 1491 1482 1470 1454 1428 1398 1389 1382 1377 1372 1371 1369 1367 1368 1367 1370 1381 1397 1426 1453 1480 1521 1601 1626 1650 1674 1697 1716 1722 1708 1682 1652 1624 1597 1579 1561 1542 1526 1511 1498 1493 1487 1475 1459 1443 1428 1412 1394 1365 1331 1310 1309 1331 1361 1386 1415 1453 1489 1500 1501 1504 1504 1495 1483 1470 1457 1439 1418 1395 1373 1353 9999
2908 2878 2846 2812 2781 2752 2724 2695 2670 2646 2623 2601 2582 2566 2551 2535 2518 2499 2454 2408 2377 2347 2316 2298 2297 2321 2359 2393 2409 2416 2416 2412 2407 2401 2372 2325 2275 2227 2214 2214 2230 2235 2230 2220 2209 2196 2183 2170 2153 2122 2098 2093 2144 2208 2246 2279 2308 2332 2332 2312 2293 2271 2248 2224 2198 2168 2139 2112 2081 2034 2022 2055 2099 2150 2198 2235 2271 2304 2324 2345 2369 2375 2357 2330 2307 2268 2221 2184 2157 2133 2109 2075 2035 2001 1910 1880 1852 1825 1806 1810 1857 1895 1914 1922 1921 1916 1905 1893 1882 1870 1858 1845 1834 1822 1809 1792 1761 1730 1693 1641 1592 1555 1550 1567 1574 1580 1580 1579 1579 1578 1569 1560 1553 1544 1535 1524 1508 1490 1462 1434 1416 1399 1394 1388 1383 1378 1371 1368 1366 1370 1390 1409 1431 1460 1488 1547 1610 1635 1658 1677 1689 1691 1672 1648 1619 1593 1574 1556 1539 1521 1504 1493 1491 1488 1485 1476 1460 1442 1424 1408 1390 1361 1329 1308 1305 1318 1348 1380 1407 1442 1476 1499 1501 1493 1484 1476 1465 1452 1439 1425 1405 1383 1362 1343 9999
2894 2857 2823 2793 2765 2736 2707 2678 2654 2631 2607 2586 2565 2547 2536 2522 2507 2476 2431 2393 2366 2339 2311 2293 2277 2290 2313 2346 2374 2391 2401 2400 2400 2385 2350 2307 2256 2206 2199 2197 2204 2208 2203 2194 2185 2177 2164 2148 2132 2109 2084 2097 2147 2206 2238 2269 2295 2309 2305 2293 2276 2257 2234 2211 2185 2156 2125 2096 2062 2026 2016 2053 2098 2144 2188 2225 2259 2291 2315 2342 2366 2371 2355 2325 2298 2251 2204 2172 2143 2116 2087 2044 2004 1939 1884 1855 1828 1815 1823 1849 1894 1920 1936 1942 1940 1932 1921 1910 1897 1883 1870 1858 1845 1833 1819 1803 1773 1738 1703 1654 1608 1584 1586 1598 1604 1610 1613 1613 1614 1616 1611 1606 1602 1593 1577 1577 1560 1543 1528 1513 1498 1477 1455 1434 1410 1396 1389 1384 1369 1364 1375 1393 1413 1442 1470 1496 1584 1618 1638 1653 1655 1654 1633 1609 1589 1569 1550 1533 1517 1500 1486 1478 1478 1481 1483 1478 1465 1446 1426 1408 1388 1359 1327 1306 1303 1314 1342 1374 1398 1431 1462 1481 1481 1474 1464 1456 1447 1435 1421 1408 1392 1372 1351 1331 9999
2873 2836 2800 2771 2739 2714 2692 2662 2629 2607 2594 2573 2549 2528 2514 2506 2486 2448 2405 2384 2357 2326 2300 2279 2257 2258 2279 2302 2332 2348 2357 2362 2367 2350 2318 2283 2241 2197 2186 2179 2175 2178 2176 2170 2164 2157 2147 2131 2112 2086 2060 2088 2144 2203 2232 2260 2281 2291 2285 2274 2260 2242 2221 2197 2170 2143 2114 2084 2041 2010 2012 2047 2092 2133 2178 2216 2248 2279 2306 2333 2357 2361 2345 2314 2278 2227 2185 2153 2122 2094 2052 2009 1958 1898 1871 1843 1827 1827 1850 1883 1916 1946 1959 1963 1959 1949 1938 1926 1910 1895 1882 1869 1856 1841 1826 1809 1781 1746 1711 1669 1629 1613 1611 1626 1633 1637 1639 1640 1642 1644 1641 1637 1632 1625 1614 1616 1607 1596 1586 1566 1556 1539 1522 1508 1491 1464 1423 1398 1382 1365 1364 1380 1401 1427 1451 1477 1513 1597 1619 1625 1620 1615 1597 1578 1562 1544 1525 1508 1495 1483 1469 1459 1460 1469 1476 1476 1468 1452 1432 1409 1389 1358 1329 1309 1301 1311 1338 1369 1398 1420 1442 1459 1462 1454 1445 1436 1428 1418 1405 1389 1373 1356 1338 1318 9999
2860 2822 2788 2757 2725 2699 2684 2647 2612 2598 2589 2562 2533 2511 2499 2496 2467 2422 2398 2387 2358 2325 2297 2274 2251 2234 2238 2267 2292 2305 2314 2316 2316 2308 2286 2260 2227 2191 2164 2145 2136 2144 2146 2145 2142 2137 2129 2116 2094 2049 2037 2084 2137 2194 2221 2243 2260 2268 2262 2254 2243 2226 2207 2182 2154 2127 2099 2072 2037 2009 2017 2048 2087 2128 2171 2208 2239 2268 2294 2315 2334 2340 2324 2302 2252 2198 2162 2128 2098 2061 2024 1978 1914 1896 1877 1860 1852 1852 1876 1899 1941 1974 1983 1984 1976 1967 1955 1940 1924 1908 1893 1879 1865 1850 1832 1813 1789 1751 1713 1684 1661 1643 1640 1652 1662 1664 1666 1666 1669 1673 1672 1668 1662 1655 1647 1646 1637 1631 1624 1612 1606 1594 1575 1558 1542 1515 1478 1434 1395 1376 1361 1367 1388 1408 1432 1459 1485 1537 1596 1590 1582 1578 1567 1549 1534 1517 1500 1489 1477 1464 1451 1439 1441 1448 1463 1470 1465 1453 1433 1406 1387 1366 1341 1318 1304 1305 1329 1361 1397 1408 1423 1436 1442 1434 1425 1416 1408 1400 1385 1368 1353 1337 1320 1303 9999
2874 2835 2797 2767 2734 2706 2681 2646 2611 2599 2588 2561 2530 2502 2499 2492 2463 2424 2399 2394 2368 2334 2305 2292 2269 2231 2216 2221 2257 2267 2271 2271 2270 2269 2250 2231 2206 2180 2149 2121 2105 2110 2114 2117 2118 2115 2110 2098 2065 2018 2028 2083 2127 2172 2206 2223 2236 2241 2238 2233 2223 2210 2190 2165 2139 2111 2081 2054 2027 2011 2026 2059 2089 2123 2162 2199 2227 2255 2279 2299 2312 2317 2304 2278 2228 2184 2145 2105 2072 2040 2004 1962 1924 1918 1903 1897 1891 1890 1899 1938 1980 2007 2010 2003 1994 1984 1971 1955 1939 1922 1905 1891 1875 1857 1838 1819 1795 1752 1709 1695 1685 1673 1671 1681 1691 1691 1692 1693 1696 1701 1702 1698 1693 1687 1681 1676 1669 1664 1657 1644 1637 1626 1615 1603 1581 1555 1524 1488 1429 1390 1367 1359 1370 1392 1415 1441 1469 1488 1499 1525 1542 1540 1532 1517 1502 1493 1485 1474 1462 1448 1431 1421 1422 1427 1441 1455 1457 1448 1422 1398 1382 1366 1348 1327 1309 1297 1316 1349 1388 1400 1408 1417 1420 1414 1405 1395 1384 1373 1362 1347 1332 1317 1300 1300 9999
2903 2865 2824 2790 2760 2728 2693 2662 2633 2610 2592 2572 2544 2518 2500 2493 2468 2437 2415 2404 2384 2357 2335 2318 2296 2264 2222 2205 2220 2227 2226 2226 2225 2224 2211 2196 2188 2169 2145 2115 2097 2089 2075 2079 2085 2088 2083 2067 2042 2009 2026 2082 2123 2158 2182 2202 2213 2216 2214 2212 2202 2189 2170 2146 2121 2095 2060 2031 2010 2008 2025 2053 2082 2112 2149 2184 2214 2241 2262 2278 2288 2293 2296 2283 2230 2190 2153 2103 2061 2016 1998 1981 1963 1957 1954 1951 1940 1933 1943 1982 2019 2037 2035 2025 2014 2001 1986 1970 1954 1938 1921 1902 1884 1865 1844 1821 1796 1750 1705 1692 1690 1694 1696 1708 1720 1721 1722 1722 1723 1728 1728 1724 1719 1714 1708 1704 1700 1697 1690 1677 1667 1657 1646 1630 1614 1600 1570 1534 1497 1406 1381 1362 1360 1380 1399 1425 1447 1462 1474 1488 1504 1503 1497 1489 1480 1474 1469 1460 1448 1434 1420 1405 1404 1409 1420 1432 1438 1431 1413 1397 1381 1363 1345 1328 1312 1298 1299 1326 1368 1400 1399 1402 1401 1391 1380 1368 1356 1347 1335 1323 1310 1300 1300 1299 9999
2933 2895 2855 2816 2784 2751 2717 2694 2669 2640 2615 2594 2575 2550 2522 2499 2481 2458 2444 2427 2406 2383 2361 2339 2318 2296 2256 2201 2199 2195 2189 2186 2186 2188 2183 2171 2161 2147 2127 2111 2100 2094 2059 2032 2018 2041 2044 2037 2015 2002 2020 2072 2114 2134 2155 2175 2187 2191 2191 2190 2181 2165 2148 2125 2102 2068 2034 2005 2000 2000 2016 2044 2073 2104 2138 2172 2203 2224 2241 2254 2259 2269 2293 2296 2261 2216 2183 2137 2108 2060 1998 2000 2003 2004 2005 2006 1997 1987 1996 2018 2051 2065 2059 2045 2032 2017 2001 1986 1970 1954 1937 1916 1894 1873 1850 1827 1804 1760 1711 1695 1697 1711 1730 1742 1750 1751 1753 1753 1751 1754 1754 1749 1744 1736 1730 1721 1716 1716 1713 1705 1697 1688 1675 1656 1638 1622 1605 1573 1518 1450 1395 1372 1353 1360 1385 1406 1423 1437 1452 1468 1475 1473 1470 1464 1457 1453 1452 1446 1436 1422 1408 1399 1395 1390 1393 1404 1413 1412 1400 1386 1373 1359 1345 1328 1312 1299 1295 1299 1335 1367 1384 1377 1369 1361 1351 1341 1328 1320 1310 1298 1296 1299 1299 1297 9999
2955 2917 2881 2844 2811 2776 2745 2722 2695 2667 2643 2623 2607 2588 2562 2531 2502 2484 2471 2451 2429 2404 2381 2358 2336 2314 2285 2220 2192 2176 2158 2146 2149 2157 2154 2145 2134 2123 2109 2102 2099 2100 2100 2065 2024 2011 2011 2007 1997 1996 2007 2055 2086 2107 2129 2146 2158 2165 2167 2168 2159 2144 2125 2104 2074 2039 2004 1999 1999 1999 2006 2037 2067 2096 2129 2160 2186 2206 2219 2228 2228 2238 2274 2292 2282 2250 2215 2186 2153 2121 2090 2066 2070 2062 2057 2053 2045 2035 2040 2071 2088 2092 2078 2063 2046 2030 2015 2002 1986 1970 1952 1930 1908 1884 1858 1830 1801 1765 1723 1707 1723 1745 1764 1778 1780 1782 1784 1784 1779 1781 1780 1774 1768 1759 1750 1744 1737 1737 1739 1728 1717 1708 1697 1677 1658 1640 1619 1591 1528 1467 1418 1385 1356 1349 1360 1383 1399 1416 1431 1441 1442 1444 1442 1439 1434 1432 1433 1429 1423 1411 1400 1386 1375 1360 1355 1363 1380 1386 1383 1368 1356 1345 1332 1320 1308 1296 1287 1291 1303 1332 1346 1345 1337 1329 1320 1313 1301 1295 1291 1283 1286 1295 1298 1295 9999
2963 2931 2903 2868 2832 2797 2770 2745 2718 2694 2670 2650 2632 2617 2597 2565 2537 2515 2495 2474 2450 2424 2397 2374 2351 2328 2303 2253 2205 2177 2151 2131 2125 2126 2126 2119 2109 2103 2101 2100 2099 2100 2100 2100 2069 2026 1999 1995 1985 1986 1998 2027 2055 2080 2106 2117 2129 2139 2144 2146 2138 2123 2105 2079 2047 2012 1996 1993 1994 1996 2000 2026 2052 2086 2119 2147 2171 2192 2202 2205 2200 2207 2232 2265 2284 2274 2243 2213 2189 2157 2127 2115 2117 2110 2105 2100 2093 2085 2077 2101 2108 2103 2093 2076 2057 2042 2028 2014 2003 1987 1966 1944 1922 1901 1869 1832 1798 1772 1746 1744 1762 1782 1799 1811 1811 1811 1811 1813 1808 1809 1805 1798 1789 1780 1770 1766 1757 1756 1754 1747 1736 1721 1707 1690 1668 1645 1622 1601 1539 1478 1438 1400 1371 1351 1351 1369 1383 1396 1406 1411 1411 1416 1415 1413 1411 1410 1413 1412 1408 1400 1385 1365 1347 1331 1316 1317 1328 1342 1346 1344 1336 1326 1318 1309 1301 1290 1278 1280 1290 1301 1309 1309 1304 1298 1293 1290 1285 1276 1271 1262 1269 1288 1294 1293 9999
2972 2945 2918 2892 2855 2822 2793 2767 2742 2718 2696 2675 2656 2638 2618 2598 2571 2546 2521 2496 2471 2442 2413 2386 2361 2337 2311 2273 2229 2195 2157 2137 2126 2117 2109 2100 2100 2100 2100 2100 2100 2100 2100 2100 2073 2035 1999 1987 1974 1974 1988 2006 2030 2053 2074 2086 2103 2114 2121 2124 2119 2104 2084 2058 2029 1996 1980 1972 1971 1975 1985 1999 2031 2072 2112 2139 2163 2177 2182 2174 2166 2175 2199 2232 2263 2272 2261 2232 2210 2191 2163 2155 2153 2144 2136 2128 2121 2114 2106 2112 2120 2114 2101 2084 2068 2054 2039 2027 2014 2001 1980 1958 1936 1911 1875 1832 1797 1781 1778 1784 1799 1817 1829 1838 1838 1835 1835 1839 1851 1848 1840 1826 1808 1796 1785 1778 1769 1763 1755 1746 1737 1723 1708 1689 1666 1642 1621 1603 1552 1491 1452 1417 1388 1365 1348 1353 1363 1376 1386 1397 1390 1389 1386 1385 1383 1382 1387 1387 1381 1372 1357 1341 1323 1306 1297 1296 1297 1299 1304 1316 1314 1310 1305 1300 1299 1287 1273 1270 1274 1284 1286 1286 1284 1276 1269 1264 1264 1256 1247 1242 1251 1277 1290 1291 9999
2977 2954 2931 2908 2876 2845 2816 2790 2765 2740 2717 2697 2678 2658 2639 2620 2600 2571 2545 2517 2488 2457 2425 2396 2371 2344 2316 2282 2243 2202 2175 2156 2137 2118 2103 2097 2100 2100 2100 2100 2100 2099 2091 2056 2033 2006 1991 1977 1965 1959 1971 1987 2002 2022 2039 2054 2073 2088 2098 2102 2099 2087 2070 2047 2021 1993 1964 1944 1938 1943 1960 1986 2008 2063 2109 2127 2141 2152 2155 2136 2125 2140 2173 2203 2231 2255 2257 2243 2223 2206 2192 2184 2181 2174 2167 2157 2149 2139 2129 2126 2126 2117 2104 2092 2077 2063 2054 2037 2020 2007 1993 1970 1945 1918 1884 1833 1798 1794 1797 1814 1835 1851 1861 1867 1866 1859 1858 1865 1876 1876 1863 1843 1821 1801 1786 1775 1763 1747 1735 1727 1721 1711 1702 1681 1657 1634 1614 1601 1567 1498 1461 1428 1397 1374 1353 1343 1343 1350 1361 1390 1364 1358 1355 1354 1353 1350 1349 1346 1343 1334 1325 1311 1299 1296 1291 1289 1289 1291 1293 1296 1297 1298 1300 1300 1295 1284 1267 1262 1259 1258 1262 1263 1262 1255 1246 1243 1241 1238 1233 1231 1238 1263 1285 1291 9999
2973 2954 2934 2913 2889 2860 2834 2808 2784 2759 2735 2714 2698 2679 2661 2641 2618 2594 2565 2535 2499 2467 2437 2408 2379 2347 2316 2281 2242 2202 2175 2148 2125 2111 2112 2117 2115 2108 2103 2100 2100 2099 2088 2042 2002 1994 1986 1974 1960 1950 1948 1960 1978 1992 2007 2023 2043 2059 2070 2077 2078 2070 2055 2037 2016 1996 1960 1925 1911 1915 1940 1978 2000 2047 2100 2110 2120 2128 2129 2109 2099 2116 2149 2180 2206 2228 2242 2238 2225 2211 2202 2194 2185 2176 2171 2165 2159 2153 2142 2128 2128 2120 2105 2099 2089 2076 2058 2041 2025 2013 2003 1983 1956 1926 1897 1858 1820 1811 1837 1857 1873 1886 1895 1897 1892 1883 1880 1885 1888 1881 1857 1831 1807 1783 1759 1747 1733 1715 1705 1703 1701 1692 1681 1667 1642 1622 1606 1599 1568 1504 1469 1437 1410 1388 1361 1339 1333 1333 1337 1389 1335 1325 1324 1323 1322 1318 1312 1306 1305 1299 1298 1296 1293 1290 1284 1282 1281 1282 1283 1285 1286 1288 1292 1295 1285 1275 1261 1255 1252 1250 1249 1250 1248 1244 1241 1240 1238 1235 1232 1231 1236 1255 1282 1292 9999
2962 2946 2929 2910 2888 2863 2838 2816 2797 2772 2748 2726 2708 2700 2682 2659 2634 2610 2582 2544 2503 2472 2440 2409 2377 2343 2311 2276 2239 2202 2165 2135 2121 2122 2136 2147 2149 2142 2137 2125 2113 2100 2091 2059 2024 1998 1993 1983 1971 1954 1938 1934 1946 1961 1977 1995 2016 2032 2043 2051 2055 2049 2038 2024 2011 2000 1964 1921 1899 1901 1933 1973 2006 2049 2089 2100 2106 2109 2108 2088 2086 2098 2129 2161 2188 2208 2217 2217 2210 2200 2182 2166 2155 2154 2151 2148 2144 2144 2136 2115 2111 2106 2102 2100 2088 2075 2061 2047 2033 2023 2011 2000 1966 1927 1898 1887 1859 1860 1891 1901 1901 1900 1901 1901 1900 1900 1899 1895 1888 1862 1828 1806 1785 1746 1715 1697 1685 1671 1655 1651 1648 1646 1644 1635 1625 1608 1600 1593 1562 1505 1477 1450 1424 1401 1373 1335 1330 1330 1353 1391 1326 1306 1299 1299 1299 1298 1297 1296 1296 1294 1292 1290 1287 1285 1280 1279 1277 1276 1275 1275 1275 1276 1280 1280 1272 1264 1256 1252 1251 1250 1252 1256 1260 1260 1256 1258 1263 1260 1254 1253 1257 1271 1281 1295 9999
2949 2935 2919 2903 2878 2854 2832 2811 2797 2776 2753 2731 2713 2702 2694 2668 2643 2620 2591 2548 2505 2474 2444 2415 2383 2342 2305 2269 2233 2197 2163 2136 2134 2148 2169 2179 2184 2176 2171 2161 2148 2130 2113 2100 2073 2040 2015 1999 1991 1974 1946 1928 1924 1926 1941 1964 1988 2004 2016 2025 2031 2029 2020 2011 2003 2000 1968 1914 1891 1898 1930 1967 2005 2044 2081 2100 2100 2100 2084 2056 2051 2083 2120 2150 2177 2196 2199 2201 2187 2164 2134 2118 2114 2118 2117 2116 2114 2113 2113 2099 2091 2091 2090 2085 2079 2071 2062 2051 2040 2033 2020 2006 1978 1920 1900 1898 1892 1901 1907 1909 1905 1902 1902 1902 1901 1900 1900 1900 1880 1847 1813 1796 1762 1718 1696 1669 1635 1614 1596 1594 1597 1600 1601 1601 1594 1586 1579 1561 1536 1507 1481 1457 1433 1409 1370 1333 1331 1354 1392 1401 1376 1314 1299 1297 1296 1294 1293 1292 1291 1289 1287 1285 1284 1282 1281 1279 1277 1275 1274 1272 1270 1269 1269 1267 1263 1260 1256 1256 1260 1268 1272 1278 1284 1284 1284 1287 1291 1289 1284 1280 1281 1288 1299 1321 9999
2933 2921 2907 2884 2859 2839 2818 2802 2788 2772 2752 2731 2714 2702 2696 2669 2645 2621 2593 2555 2515 2480 2448 2415 2381 2340 2300 2259 2219 2190 2163 2157 2167 2184 2199 2218 2228 2219 2211 2196 2181 2163 2147 2131 2113 2086 2057 2035 2015 1994 1965 1939 1922 1914 1914 1925 1947 1970 1985 1999 2007 2011 2006 2003 2000 2000 1953 1904 1875 1895 1933 1972 2010 2040 2071 2090 2092 2074 2050 2020 2014 2072 2116 2144 2169 2191 2195 2190 2169 2133 2102 2097 2084 2085 2084 2084 2083 2084 2088 2080 2065 2062 2060 2060 2060 2061 2056 2049 2041 2034 2025 2011 1985 1934 1913 1902 1910 1914 1919 1920 1911 1906 1904 1902 1901 1900 1900 1900 1883 1852 1820 1790 1760 1728 1697 1658 1615 1575 1545 1510 1532 1546 1550 1546 1541 1537 1527 1516 1504 1488 1470 1448 1427 1407 1363 1338 1351 1380 1403 1412 1392 1339 1310 1299 1297 1296 1294 1292 1289 1288 1287 1287 1286 1285 1285 1285 1284 1281 1278 1275 1272 1269 1267 1265 1264 1266 1266 1270 1284 1291 1296 1300 1309 1311 1311 1312 1312 1303 1297 1291 1284 1295 1353 1385 9999
2917 2905 2885 2858 2832 2812 2799 2786 2771 2758 2744 2727 2711 2700 2699 2661 2628 2606 2583 2548 2510 2474 2437 2403 2362 2323 2289 2249 2211 2195 2183 2191 2204 2222 2246 2270 2287 2288 2279 2258 2223 2196 2179 2159 2134 2111 2085 2056 2032 2008 1989 1966 1943 1923 1910 1905 1910 1922 1939 1950 1966 1985 1999 2000 2000 1979 1926 1883 1860 1894 1935 1980 2005 2031 2057 2069 2069 2053 2021 1997 2000 2056 2110 2136 2166 2189 2193 2182 2155 2126 2097 2080 2051 2036 2039 2042 2044 2051 2059 2054 2043 2033 2028 2030 2032 2042 2042 2037 2030 2027 2021 2008 1994 1969 1941 1927 1929 1931 1931 1927 1917 1908 1905 1903 1901 1900 1900 1900 1880 1851 1821 1791 1761 1731 1703 1657 1608 1559 1512 1495 1497 1496 1494 1493 1492 1491 1488 1483 1477 1463 1449 1430 1413 1400 1364 1351 1366 1392 1413 1426 1404 1367 1340 1320 1309 1299 1298 1296 1291 1289 1291 1293 1293 1293 1293 1293 1293 1291 1289 1286 1281 1276 1273 1273 1273 1280 1285 1295 1310 1324 1332 1339 1344 1347 1347 1347 1336 1316 1299 1292 1293 1333 1407 1416 9999
2900 2876 2850 2824 2800 2786 2778 2767 2754 2741 2728 2715 2705 2688 2668 2638 2606 2580 2556 2527 2495 2464 2426 2387 2343 2302 2270 2234 2208 2199 2206 2221 2240 2261 2287 2310 2320 2319 2314 2302 2275 2239 2201 2174 2144 2113 2087 2064 2035 2009 1998 1993 1979 1958 1934 1912 1901 1899 1898 1903 1913 1935 1959 1968 1968 1949 1916 1872 1848 1884 1928 1975 2002 2022 2038 2048 2044 2029 2006 1971 1996 2050 2104 2134 2166 2188 2191 2175 2147 2118 2089 2057 2021 1996 1995 2000 2009 2020 2029 2026 2018 2010 2001 1998 2004 2010 2015 2012 2009 2010 2006 2000 1993 1984 1969 1954 1948 1944 1937 1930 1919 1909 1905 1902 1901 1900 1900 1891 1869 1843 1816 1788 1761 1735 1709 1666 1611 1558 1504 1474 1459 1456 1449 1445 1445 1446 1459 1453 1446 1435 1421 1409 1399 1387 1366 1367 1383 1399 1426 1443 1419 1391 1365 1347 1333 1323 1313 1304 1298 1296 1298 1299 1299 1300 1300 1300 1301 1300 1298 1297 1293 1289 1286 1286 1289 1293 1303 1323 1345 1368 1379 1379 1381 1383 1383 1379 1361 1334 1309 1296 1299 1404 1424 1435 9999
2864 2838 2810 2790 2776 2763 2753 2746 2735 2723 2710 2697 2676 2655 2632 2607 2582 2558 2535 2508 2479 2450 2419 2376 2324 2283 2246 2218 2209 2216 2234 2251 2271 2294 2316 2336 2345 2343 2331 2313 2296 2253 2209 2175 2143 2110 2095 2078 2051 2028 2020 2027 2013 1993 1974 1947 1922 1914 1900 1888 1884 1894 1910 1924 1933 1922 1894 1858 1835 1868 1910 1951 1986 2007 2018 2025 2020 2010 1976 1948 1989 2041 2097 2127 2164 2183 2184 2168 2133 2105 2073 2037 2002 1972 1953 1953 1968 1988 2005 2004 2000 1999 1993 1986 1976 1972 1978 1979 1984 1990 1984 1980 1979 1979 1975 1965 1956 1948 1938 1928 1917 1908 1904 1902 1901 1900 1886 1872 1855 1832 1807 1783 1760 1736 1712 1674 1624 1566 1499 1457 1443 1435 1425 1418 1411 1411 1420 1427 1417 1407 1399 1393 1384 1375 1370 1377 1392 1412 1441 1459 1442 1410 1388 1370 1356 1344 1333 1324 1314 1306 1304 1309 1312 1313 1313 1313 1314 1312 1310 1307 1303 1299 1297 1297 1298 1306 1325 1347 1373 1397 1404 1409 1409 1403 1399 1401 1378 1349 1320 1299 1339 1419 1441 1455 9999
2831 2806 2783 2764 2751 2740 2728 2722 2714 2704 2683 2661 2643 2623 2601 2579 2557 2535 2514 2492 2465 2437 2407 2360 2306 2266 2223 2207 2218 2243 2261 2278 2299 2322 2343 2362 2370 2366 2346 2324 2297 2255 2211 2176 2141 2103 2099 2094 2081 2064 2064 2068 2055 2034 2008 1986 1964 1936 1906 1885 1868 1861 1871 1886 1898 1894 1872 1837 1826 1850 1891 1925 1955 1980 1997 2003 1995 1966 1934 1947 2009 2047 2088 2118 2152 2175 2175 2153 2120 2095 2063 2030 1993 1949 1915 1910 1922 1948 1975 1996 2003 1994 1980 1963 1946 1931 1926 1933 1944 1955 1956 1956 1956 1963 1965 1959 1951 1941 1927 1918 1911 1904 1901 1900 1893 1879 1866 1853 1838 1819 1796 1776 1755 1733 1711 1675 1624 1563 1496 1465 1463 1464 1454 1445 1431 1412 1410 1409 1401 1400 1398 1390 1381 1380 1384 1391 1402 1430 1460 1472 1465 1438 1408 1391 1377 1364 1352 1341 1328 1317 1318 1323 1325 1326 1326 1326 1327 1325 1323 1319 1312 1303 1298 1299 1300 1319 1341 1364 1391 1413 1424 1430 1428 1417 1405 1400 1388 1359 1339 1319 1400 1440 1460 1475 9999
2800 2780 2757 2738 2723 2716 2705 2696 2685 2665 2644 2623 2607 2591 2571 2549 2528 2509 2491 2472 2449 2422 2389 2333 2288 2247 2216 2213 2234 2268 2286 2303 2327 2351 2371 2388 2395 2382 2356 2324 2292 2247 2203 2180 2142 2102 2099 2097 2099 2098 2106 2107 2098 2080 2058 2027 1994 1966 1933 1899 1876 1847 1838 1841 1860 1854 1828 1813 1816 1833 1872 1901 1926 1947 1962 1967 1955 1925 1910 1942 2008 2049 2089 2117 2146 2166 2166 2146 2116 2088 2054 2022 1987 1945 1903 1894 1896 1914 1946 1976 1996 1995 1984 1961 1932 1908 1899 1896 1904 1918 1926 1930 1931 1938 1941 1937 1931 1922 1911 1906 1902 1896 1892 1884 1872 1859 1846 1833 1819 1804 1787 1768 1747 1727 1706 1671 1629 1585 1495 1480 1496 1502 1501 1490 1471 1455 1434 1408 1397 1400 1399 1396 1395 1396 1399 1408 1421 1446 1474 1481 1469 1438 1416 1405 1397 1382 1369 1356 1340 1328 1332 1338 1338 1340 1339 1339 1340 1338 1335 1329 1320 1309 1305 1306 1314 1330 1351 1375 1400 1426 1445 1455 1451 1437 1419 1403 1384 1359 1358 1382 1419 1462 1486 1498 9999
2790 2761 2731 2709 2698 2688 2672 2657 2643 2620 2602 2584 2569 2556 2539 2518 2498 2484 2470 2451 2429 2405 2361 2307 2268 2231 2221 2239 2272 2296 2314 2336 2359 2381 2400 2406 2405 2388 2342 2301 2292 2252 2215 2197 2169 2195 2200 2154 2149 2143 2145 2140 2127 2115 2103 2076 2043 2004 1967 1920 1892 1867 1840 1824 1822 1811 1801 1798 1806 1817 1853 1878 1898 1912 1923 1925 1917 1907 1916 1964 2011 2050 2085 2111 2133 2153 2153 2133 2108 2081 2049 2016 1981 1942 1902 1877 1872 1894 1923 1956 1981 1997 1994 1977 1944 1913 1893 1871 1869 1881 1895 1905 1908 1912 1912 1911 1908 1904 1896 1890 1885 1875 1869 1862 1852 1839 1826 1813 1800 1788 1774 1757 1738 1719 1698 1658 1623 1586 1499 1499 1514 1523 1521 1511 1499 1468 1430 1403 1406 1424 1434 1442 1435 1433 1435 1434 1442 1463 1483 1485 1464 1438 1421 1410 1401 1397 1384 1371 1344 1338 1347 1352 1351 1353 1352 1352 1353 1350 1346 1339 1327 1318 1313 1318 1329 1345 1362 1381 1404 1436 1463 1478 1475 1459 1436 1408 1384 1360 1367 1396 1444 1487 1502 1510 9999
2792 2760 2722 2699 2692 2663 2635 2618 2605 2584 2561 2541 2528 2519 2507 2488 2474 2462 2449 2432 2410 2378 2334 2292 2254 2235 2245 2277 2302 2324 2343 2368 2392 2406 2417 2422 2413 2393 2348 2317 2302 2293 2267 2236 2219 2214 2208 2203 2203 2194 2181 2168 2154 2142 2129 2115 2106 2070 2020 1977 1936 1898 1876 1846 1820 1803 1789 1785 1795 1809 1829 1852 1872 1880 1888 1892 1895 1900 1931 1977 2016 2048 2078 2103 2123 2142 2137 2119 2099 2071 2041 2010 1976 1940 1903 1870 1852 1874 1907 1936 1964 1987 1995 1988 1960 1927 1903 1872 1842 1837 1850 1863 1879 1887 1888 1887 1887 1882 1874 1867 1863 1855 1847 1840 1831 1818 1805 1794 1784 1772 1758 1743 1727 1708 1681 1643 1603 1555 1504 1511 1531 1544 1544 1534 1508 1469 1422 1407 1429 1462 1485 1500 1492 1480 1474 1462 1463 1478 1488 1482 1457 1439 1425 1413 1404 1400 1395 1374 1348 1349 1362 1365 1364 1367 1366 1365 1365 1363 1357 1346 1335 1323 1319 1332 1346 1361 1375 1389 1411 1445 1477 1497 1496 1480 1451 1414 1387 1367 1382 1415 1469 1505 1517 1525 9999
