ncols         409
nrows         46
xllcorner     746305.9375
yllcorner     3757860
cellsize      50
NODATA_value  9999
9999 2549 2587 2591 2577 2549 2528 2509 2478 2430 2387 2361 2391 2439 2502 2529 2555 2578 2600 2619 2639 2656 2671 2689 2711 2741 2770 2800 2820 2839 2858 2876 2894 2929 2970 3005 3027 3049 3073 3097 3120 3141 3160 3185 3203 3211 3208 3199 3163 3132 3105 3091 3085 3097 3110 3124 3137 3148 3159 3164 3171 3181 3190 3196 3200 3199 3185 3175 3165 3170 3197 3218 3235 3251 3274 3298 3304 3309 3315 3319 3320 3314 3310 3312 3325 3333 3340 3349 3359 3369 3378 3385 3389 3393 3395 3398 3401 3405 3408 3413 3418 3425 3432 3438 3445 3453 3462 3471 3481 3492 3502 3510 3517 3517 3512 3507 3502 3497 3487 3476 3466 3457 3446 3435 3424 3416 3410 3409 3404 3398 3393 3390 3387 3385 3384 3386 3389 3392 3394 3397 3399 3399 3399 3400 3409 3417 3421 3423 3426 3427 3426 3425 3422 3420 3418 3415 3412 3409 3404 3397 3389 3379 3369 3357 3342 3328 3321 3319 3322 3343 3354 3359 3362 3370 3377 3381 3378 3371 3360 3348 3335 3319 3302 3289 3278 3267 3257 3247 3236 3224 3212 3201 3186 3166 3144 3129 3127 3133 3152 3177 3196 3208 3222 3236 3246 3248 3246 3239 3230 3219 3214 3208 3204 3201 3198 3193 3193 3200 3202 3203 3205 3207 3207 3206 3203 3201 3200 3149 3099 3050 2997 2977 2955 2938 2923 2911 2899 2888 2876 2852 2833 2814 2789 2761 2731 2697 2665 2630 2612 2609 2621 2627 2632 2632 2628 2620 2612 2596 2567 2538 2511 2488 2465 2442 2420 2400 2388 2395 2406 2404 2409 2408 2396 2368 2350 2326 2295 2232 2185 2158 2143 2138 2159 2200 2203 2205 2203 2200 2187 2171 2157 2131 2100 2100 2104 2117 2131 2143 2151 2151 2144 2135 2126 2116 2106 2095 2085 2069 2051 2031 2012 1976 1912 1883 1851 1809 1779 1765 1771 1793 1858 1916 1942 1972 2002 2029 2056 2083 2112 2146 2179 2207 2223 2240 2253 2252 2238 2237 2265 2296 2338 2342 2300 2263 2222 2175 2120 2084 2049 2020 2013 2031 2067 2098 2139 2181 2213 2238 2264 2290 2306 2317 2331 2348 2357 2353 2331 2305 2280 2255 2230 2204 2154 2105 2064 2023 2009 2011 2006 2000 1976 1935 1933 1946 1974 1998 2030 2081 2112 2142 2170 2193 2200 2205 2218 2252 2292 2308 2350 2388 2409 2425 2422 2408 2393 2372 2347 2317 2297
9999 2570 2591 2593 2583 2564 2545 2527 2507 2470 2425 2394 2398 2427 2490 2528 2559 2588 2612 2631 2650 2669 2685 2704 2733 2763 2792 2815 2835 2854 2874 2894 2927 2965 3000 3021 3044 3068 3092 3118 3143 3162 3179 3195 3207 3217 3215 3204 3180 3149 3121 3100 3098 3110 3123 3136 3150 3163 3175 3182 3189 3200 3209 3217 3221 3225 3218 3213 3207 3208 3231 3249 3269 3286 3301 3313 3322 3326 3332 3336 3337 3331 3319 3316 3336 3345 3352 3358 3365 3371 3379 3386 3392 3395 3398 3403 3408 3413 3417 3421 3425 3431 3438 3445 3452 3459 3468 3478 3488 3498 3508 3516 3518 3514 3505 3501 3496 3489 3480 3469 3458 3446 3434 3424 3414 3405 3399 3397 3392 3386 3381 3378 3375 3372 3372 3374 3377 3382 3386 3391 3394 3396 3397 3399 3401 3407 3411 3413 3415 3417 3416 3415 3414 3412 3410 3408 3405 3402 3397 3389 3381 3374 3365 3354 3343 3330 3320 3316 3313 3322 3333 3339 3344 3353 3361 3365 3363 3356 3346 3334 3321 3306 3292 3280 3268 3257 3247 3237 3226 3215 3204 3191 3176 3155 3135 3123 3122 3128 3145 3170 3192 3205 3217 3230 3239 3241 3239 3236 3231 3223 3218 3211 3207 3207 3204 3202 3203 3204 3206 3207 3208 3209 3207 3205 3202 3200 3160 3100 3072 3031 2989 2958 2930 2910 2895 2880 2865 2851 2838 2815 2792 2769 2744 2717 2689 2663 2633 2599 2575 2575 2588 2595 2603 2601 2589 2578 2565 2545 2513 2493 2480 2461 2439 2415 2389 2360 2342 2341 2356 2357 2367 2364 2345 2320 2307 2286 2242 2191 2165 2137 2114 2097 2099 2120 2131 2133 2134 2133 2128 2113 2106 2100 2096 2099 2096 2102 2113 2122 2129 2129 2122 2112 2102 2093 2084 2074 2061 2047 2031 2012 1972 1897 1877 1854 1829 1801 1791 1791 1794 1797 1830 1906 1937 1969 2000 2026 2052 2076 2098 2132 2170 2199 2205 2214 2221 2211 2197 2204 2244 2292 2333 2348 2316 2278 2234 2189 2134 2089 2054 2018 2006 2018 2052 2082 2107 2145 2185 2217 2242 2265 2286 2302 2310 2323 2334 2333 2321 2298 2275 2250 2224 2200 2154 2108 2070 2034 1998 2000 2000 1992 1957 1921 1920 1950 1987 2018 2053 2085 2102 2121 2142 2155 2169 2193 2199 2228 2282 2318 2356 2388 2399 2402 2397 2373 2350 2331 2313 2283 2259
9999 2592 2599 2598 2594 2580 2564 2546 2526 2504 2464 2423 2403 2419 2478 2523 2564 2599 2622 2643 2663 2681 2699 2725 2754 2785 2810 2831 2851 2869 2889 2920 2966 3003 3019 3038 3059 3082 3108 3139 3167 3188 3201 3207 3213 3223 3220 3207 3189 3161 3135 3111 3106 3118 3134 3150 3162 3175 3189 3200 3205 3214 3225 3235 3242 3249 3252 3251 3248 3249 3265 3281 3300 3312 3319 3328 3340 3344 3348 3353 3354 3348 3331 3326 3342 3359 3366 3372 3377 3381 3385 3390 3395 3399 3405 3411 3416 3421 3425 3429 3433 3438 3444 3452 3459 3466 3474 3482 3493 3504 3515 3516 3509 3503 3498 3493 3486 3480 3472 3462 3451 3440 3428 3416 3405 3399 3395 3389 3382 3374 3368 3364 3361 3359 3359 3361 3365 3372 3377 3385 3390 3392 3394 3395 3397 3400 3401 3403 3405 3407 3407 3406 3405 3404 3402 3400 3399 3393 3387 3381 3373 3366 3359 3350 3340 3330 3319 3313 3310 3308 3314 3320 3327 3336 3344 3348 3347 3341 3331 3320 3307 3295 3283 3271 3259 3247 3236 3226 3216 3206 3195 3182 3168 3150 3130 3119 3118 3128 3145 3167 3188 3203 3214 3224 3230 3232 3232 3231 3227 3223 3217 3212 3211 3214 3213 3213 3212 3211 3210 3210 3210 3209 3207 3204 3201 3180 3119 3094 3070 3031 2994 2956 2918 2886 2864 2845 2829 2814 2799 2775 2745 2717 2692 2673 2649 2623 2597 2565 2536 2532 2543 2545 2556 2556 2545 2532 2515 2495 2477 2466 2456 2435 2414 2384 2348 2319 2298 2292 2298 2306 2310 2305 2295 2278 2263 2239 2198 2169 2141 2115 2091 2069 2064 2072 2073 2075 2076 2079 2084 2082 2071 2071 2069 2076 2094 2099 2102 2105 2108 2106 2100 2091 2082 2072 2063 2054 2040 2026 2010 1968 1895 1873 1854 1834 1812 1802 1800 1798 1796 1797 1811 1899 1930 1962 1993 2019 2045 2070 2095 2128 2162 2195 2200 2201 2199 2195 2199 2199 2238 2289 2327 2350 2329 2296 2252 2208 2153 2095 2061 2025 2002 2011 2035 2058 2080 2106 2146 2192 2217 2237 2259 2275 2285 2295 2304 2308 2302 2289 2269 2247 2223 2198 2155 2113 2076 2038 2001 1997 1988 1964 1931 1912 1927 1965 2000 2021 2046 2070 2079 2093 2106 2113 2137 2176 2199 2239 2296 2332 2370 2386 2382 2372 2358 2337 2313 2290 2273 2241 2222
9999 2616 2619 2618 2613 2600 2584 2566 2546 2526 2504 2471 2426 2412 2461 2514 2558 2601 2626 2651 2674 2695 2718 2744 2773 2802 2824 2846 2868 2887 2912 2953 2999 3019 3038 3057 3077 3098 3126 3157 3187 3204 3210 3216 3224 3229 3224 3212 3200 3178 3148 3120 3112 3121 3141 3161 3175 3187 3201 3212 3220 3228 3238 3250 3260 3269 3283 3288 3292 3293 3301 3309 3320 3332 3339 3346 3356 3363 3365 3370 3372 3366 3351 3345 3352 3372 3379 3385 3390 3392 3394 3396 3399 3406 3413 3419 3424 3429 3434 3438 3442 3446 3451 3458 3465 3472 3480 3488 3497 3508 3515 3506 3499 3494 3490 3484 3478 3471 3464 3455 3445 3434 3422 3410 3399 3393 3386 3379 3372 3364 3356 3350 3347 3346 3346 3349 3354 3362 3369 3378 3386 3390 3391 3392 3394 3396 3397 3397 3397 3398 3397 3397 3397 3396 3396 3395 3391 3385 3378 3372 3365 3357 3350 3344 3335 3326 3318 3310 3306 3299 3299 3302 3310 3320 3329 3332 3332 3327 3318 3307 3295 3284 3273 3262 3250 3237 3225 3215 3206 3195 3184 3173 3160 3144 3126 3115 3117 3129 3148 3169 3187 3201 3209 3218 3222 3223 3223 3222 3219 3215 3212 3210 3212 3215 3218 3218 3218 3217 3215 3214 3212 3208 3205 3201 3195 3158 3111 3101 3084 3047 3007 2966 2921 2879 2842 2814 2796 2781 2757 2727 2700 2679 2656 2632 2608 2578 2542 2521 2496 2492 2498 2496 2506 2507 2500 2487 2473 2459 2442 2439 2432 2411 2382 2348 2311 2284 2267 2261 2265 2270 2271 2267 2259 2243 2223 2196 2172 2148 2120 2092 2062 2036 2029 2025 2025 2028 2027 2038 2057 2058 2049 2025 2026 2043 2073 2092 2093 2089 2087 2084 2079 2071 2062 2051 2041 2035 2020 2006 1952 1890 1868 1849 1833 1817 1802 1797 1795 1794 1793 1795 1801 1881 1924 1954 1985 2014 2040 2066 2091 2116 2147 2179 2188 2174 2164 2171 2186 2200 2238 2287 2322 2348 2340 2309 2275 2229 2174 2109 2068 2032 2003 2000 2011 2028 2053 2078 2103 2147 2184 2211 2234 2249 2261 2272 2282 2288 2285 2275 2261 2241 2220 2198 2159 2119 2081 2045 2010 1981 1956 1929 1903 1908 1938 1977 2000 2011 2029 2043 2042 2057 2079 2098 2123 2170 2208 2258 2304 2343 2371 2374 2350 2335 2314 2295 2280 2260 2238 2205 2187
9999 2640 2642 2641 2637 2624 2606 2589 2573 2552 2529 2504 2466 2428 2457 2511 2555 2600 2628 2655 2682 2708 2736 2762 2790 2815 2837 2859 2881 2906 2942 2982 3012 3032 3052 3071 3092 3119 3149 3178 3201 3210 3218 3226 3232 3233 3224 3212 3201 3182 3153 3126 3117 3123 3143 3168 3187 3200 3210 3221 3232 3241 3251 3263 3276 3288 3300 3307 3313 3316 3322 3330 3341 3353 3359 3365 3373 3381 3383 3387 3389 3387 3385 3382 3375 3382 3391 3396 3400 3397 3398 3399 3401 3414 3422 3428 3433 3438 3443 3446 3450 3454 3459 3465 3471 3478 3485 3493 3502 3513 3509 3499 3493 3487 3481 3476 3470 3463 3456 3448 3438 3428 3417 3406 3394 3385 3377 3370 3362 3354 3345 3337 3333 3332 3333 3336 3344 3352 3360 3371 3381 3388 3390 3391 3393 3394 3394 3393 3393 3390 3389 3389 3389 3388 3388 3386 3383 3378 3371 3362 3356 3349 3341 3335 3329 3321 3314 3306 3301 3296 3294 3294 3296 3305 3313 3318 3318 3313 3306 3296 3285 3274 3263 3251 3240 3229 3216 3204 3194 3184 3174 3162 3149 3137 3121 3112 3117 3131 3150 3168 3184 3197 3202 3208 3212 3211 3211 3211 3208 3205 3204 3202 3203 3208 3216 3219 3222 3223 3222 3220 3216 3210 3204 3200 3191 3160 3124 3108 3099 3072 3028 2980 2933 2887 2839 2799 2779 2755 2728 2697 2671 2649 2625 2600 2570 2533 2500 2496 2478 2453 2442 2438 2445 2451 2446 2439 2433 2423 2411 2410 2407 2374 2335 2306 2283 2255 2237 2231 2232 2234 2234 2231 2222 2207 2187 2165 2141 2119 2099 2067 2040 2029 2022 2015 2009 2005 2002 2012 2032 2035 2028 2006 1998 2020 2051 2065 2070 2068 2066 2063 2056 2050 2042 2032 2020 2014 2002 1946 1888 1855 1835 1822 1810 1801 1799 1785 1777 1779 1784 1791 1798 1861 1917 1948 1978 2008 2033 2057 2079 2096 2115 2128 2129 2123 2117 2130 2157 2190 2236 2287 2318 2346 2345 2323 2300 2256 2199 2137 2087 2044 2007 1993 1990 2003 2028 2051 2075 2102 2143 2181 2209 2225 2239 2249 2260 2267 2265 2257 2244 2230 2214 2191 2156 2119 2084 2051 2017 1977 1933 1899 1897 1904 1935 1969 1998 2001 2011 2012 2006 2019 2051 2100 2141 2182 2222 2267 2307 2337 2351 2343 2317 2299 2286 2270 2251 2231 2206 2180 2161
9999 2663 2665 2665 2661 2648 2632 2617 2599 2576 2552 2528 2495 2453 2469 2513 2557 2599 2629 2658 2687 2718 2750 2779 2805 2828 2852 2874 2894 2928 2968 3003 3023 3043 3064 3084 3106 3138 3169 3200 3208 3219 3230 3237 3238 3234 3223 3211 3200 3179 3151 3130 3123 3127 3147 3176 3197 3208 3219 3229 3240 3251 3262 3274 3287 3302 3313 3322 3329 3336 3341 3349 3362 3374 3381 3385 3391 3399 3399 3402 3405 3405 3406 3406 3406 3404 3404 3400 3400 3399 3399 3398 3408 3420 3431 3438 3443 3447 3452 3455 3459 3463 3467 3472 3478 3484 3491 3498 3508 3512 3502 3493 3486 3480 3473 3467 3462 3455 3447 3440 3432 3422 3411 3401 3390 3380 3370 3361 3352 3344 3334 3326 3320 3318 3321 3325 3334 3341 3351 3363 3375 3384 3389 3390 3391 3392 3392 3390 3386 3383 3381 3381 3380 3380 3380 3378 3376 3370 3363 3356 3347 3340 3333 3326 3320 3314 3307 3301 3288 3279 3275 3275 3279 3290 3300 3304 3305 3302 3296 3285 3275 3264 3253 3241 3230 3219 3207 3195 3182 3172 3162 3151 3139 3128 3116 3110 3117 3132 3148 3163 3177 3185 3194 3200 3202 3201 3201 3201 3198 3193 3187 3184 3193 3202 3208 3214 3220 3224 3225 3224 3220 3213 3206 3201 3200 3189 3171 3151 3125 3091 3040 2990 2944 2897 2842 2794 2770 2742 2713 2682 2652 2623 2601 2587 2551 2511 2499 2494 2472 2435 2405 2397 2392 2395 2392 2390 2391 2381 2374 2360 2331 2299 2287 2270 2250 2226 2206 2200 2199 2197 2196 2192 2179 2168 2151 2130 2107 2089 2066 2051 2047 2054 2055 2050 2035 2021 2001 2001 2010 2012 2006 1999 1999 2002 2030 2041 2046 2047 2045 2042 2034 2028 2022 2013 2001 1972 1939 1889 1851 1815 1798 1787 1772 1763 1753 1761 1749 1750 1761 1777 1794 1837 1904 1936 1970 2002 2025 2045 2061 2072 2082 2080 2077 2077 2087 2100 2140 2190 2242 2297 2320 2341 2347 2332 2311 2284 2224 2164 2108 2064 2020 1989 1973 1983 2001 2023 2047 2076 2107 2146 2178 2203 2216 2227 2239 2245 2244 2237 2228 2217 2206 2187 2156 2125 2092 2055 2018 1964 1909 1887 1879 1895 1922 1953 1977 1983 1987 1995 1999 2000 2054 2119 2158 2196 2235 2272 2300 2314 2312 2305 2291 2278 2265 2249 2229 2206 2174 2150 2136
9999 2687 2689 2689 2687 2675 2661 2644 2624 2600 2576 2548 2511 2482 2490 2519 2559 2598 2629 2660 2691 2724 2759 2792 2818 2842 2866 2889 2915 2947 2989 3014 3033 3053 3074 3095 3123 3154 3187 3206 3216 3226 3235 3240 3240 3235 3224 3211 3200 3180 3154 3134 3129 3137 3160 3186 3201 3213 3225 3237 3248 3260 3271 3283 3296 3316 3329 3337 3345 3353 3360 3367 3378 3393 3400 3402 3405 3408 3410 3413 3417 3418 3419 3420 3420 3419 3420 3415 3409 3405 3403 3409 3417 3428 3439 3446 3452 3456 3461 3465 3468 3472 3475 3480 3485 3490 3496 3503 3511 3506 3496 3488 3480 3473 3466 3460 3453 3447 3440 3432 3424 3415 3405 3395 3385 3375 3364 3354 3344 3334 3326 3315 3308 3306 3308 3316 3324 3332 3342 3355 3367 3378 3385 3387 3389 3390 3389 3385 3379 3375 3373 3373 3372 3372 3371 3370 3368 3363 3356 3349 3340 3332 3324 3317 3310 3305 3298 3284 3268 3258 3252 3252 3261 3272 3284 3292 3291 3290 3285 3275 3264 3254 3243 3231 3219 3208 3197 3185 3172 3160 3150 3139 3129 3118 3110 3107 3116 3128 3142 3156 3164 3174 3183 3188 3189 3188 3188 3187 3180 3168 3161 3164 3179 3197 3204 3211 3218 3224 3227 3227 3224 3218 3210 3205 3204 3201 3199 3170 3131 3090 3046 3001 2953 2903 2853 2802 2772 2741 2709 2676 2639 2608 2599 2589 2559 2521 2499 2497 2476 2445 2406 2386 2362 2341 2327 2318 2331 2321 2297 2284 2276 2257 2238 2228 2216 2199 2190 2171 2154 2143 2133 2125 2112 2114 2114 2099 2097 2084 2085 2082 2084 2092 2097 2095 2083 2059 2024 1999 1999 1994 1990 1990 1994 1998 2009 2018 2024 2025 2025 2021 2014 2006 2001 1984 1962 1930 1892 1851 1813 1788 1767 1753 1743 1735 1728 1732 1728 1729 1745 1769 1789 1819 1885 1927 1961 1994 2015 2028 2036 2042 2044 2036 2032 2032 2068 2103 2150 2196 2246 2296 2318 2343 2352 2344 2323 2302 2250 2188 2134 2083 2035 1993 1963 1952 1969 1994 2020 2049 2080 2112 2143 2168 2190 2206 2217 2223 2224 2219 2212 2205 2200 2182 2150 2119 2087 2054 2023 1974 1893 1872 1863 1881 1904 1929 1946 1947 1958 1982 1996 2009 2081 2130 2172 2210 2242 2273 2292 2299 2288 2284 2274 2259 2245 2230 2209 2178 2136 2105 2104
9999 2709 2713 2713 2713 2703 2688 2670 2650 2628 2601 2571 2534 2498 2499 2519 2558 2597 2628 2659 2690 2725 2761 2796 2824 2850 2874 2899 2936 2968 3001 3023 3044 3063 3082 3106 3137 3167 3200 3213 3225 3233 3240 3242 3239 3232 3220 3208 3198 3179 3155 3139 3136 3145 3167 3189 3204 3216 3229 3241 3254 3266 3278 3291 3307 3332 3347 3355 3361 3368 3376 3384 3395 3403 3407 3411 3415 3418 3421 3425 3428 3431 3432 3434 3435 3435 3435 3431 3427 3423 3422 3424 3429 3438 3447 3456 3461 3466 3470 3474 3476 3480 3484 3488 3492 3497 3501 3509 3509 3500 3491 3482 3474 3467 3460 3453 3447 3439 3432 3425 3417 3409 3399 3389 3379 3369 3358 3348 3337 3327 3317 3308 3298 3295 3299 3306 3314 3322 3333 3346 3359 3370 3378 3382 3385 3386 3383 3378 3371 3367 3365 3364 3364 3364 3363 3362 3360 3356 3349 3342 3334 3325 3316 3308 3301 3291 3278 3264 3247 3234 3228 3231 3241 3254 3267 3274 3275 3276 3272 3264 3253 3243 3233 3222 3210 3198 3185 3174 3162 3150 3139 3128 3118 3109 3103 3103 3111 3121 3134 3144 3155 3164 3171 3174 3174 3174 3174 3171 3162 3150 3146 3152 3168 3193 3203 3210 3217 3224 3228 3229 3227 3221 3215 3212 3207 3203 3200 3183 3137 3092 3045 2997 2949 2904 2849 2797 2767 2736 2704 2671 2635 2602 2600 2598 2581 2554 2536 2521 2504 2486 2456 2422 2394 2363 2344 2319 2315 2299 2279 2259 2240 2224 2212 2204 2201 2196 2192 2181 2176 2152 2139 2129 2123 2122 2105 2099 2105 2114 2127 2126 2124 2123 2126 2121 2109 2085 2049 2013 1996 1984 1977 1976 1979 1981 1998 2001 2004 2003 2003 2001 1987 1968 1954 1937 1916 1895 1863 1824 1798 1783 1775 1779 1788 1777 1764 1739 1723 1723 1737 1759 1781 1801 1871 1919 1951 1982 2002 2008 2010 2013 2006 1998 1997 1999 2032 2105 2149 2195 2244 2294 2321 2350 2364 2357 2337 2316 2284 2214 2157 2105 2055 2007 1974 1941 1935 1961 1992 2022 2055 2084 2106 2132 2159 2180 2194 2202 2207 2205 2203 2200 2200 2177 2148 2118 2088 2056 2026 1996 1896 1868 1848 1854 1884 1901 1911 1911 1935 1970 1997 2044 2097 2139 2180 2213 2240 2268 2286 2288 2278 2264 2256 2243 2227 2211 2185 2143 2102 2093 2089
9999 2728 2736 2738 2739 2730 2715 2701 2681 2657 2629 2597 2559 2520 2502 2517 2558 2596 2628 2658 2689 2726 2765 2802 2830 2856 2882 2912 2951 2987 3011 3031 3053 3074 3093 3117 3148 3179 3204 3219 3233 3239 3242 3241 3235 3226 3216 3204 3194 3178 3157 3143 3142 3152 3173 3193 3207 3219 3232 3244 3257 3270 3282 3295 3318 3347 3363 3372 3378 3383 3389 3398 3404 3409 3415 3420 3424 3429 3433 3436 3440 3444 3446 3448 3450 3450 3450 3448 3446 3442 3441 3442 3444 3449 3457 3465 3470 3476 3480 3483 3486 3489 3493 3496 3500 3504 3509 3510 3503 3495 3484 3475 3467 3460 3453 3447 3440 3433 3425 3418 3410 3402 3393 3384 3374 3364 3353 3343 3332 3322 3311 3301 3290 3281 3285 3295 3304 3313 3324 3336 3349 3360 3369 3374 3377 3378 3376 3370 3363 3359 3356 3356 3356 3356 3355 3354 3352 3349 3343 3336 3328 3319 3310 3301 3286 3271 3257 3243 3229 3213 3206 3212 3223 3237 3249 3255 3259 3262 3259 3251 3242 3231 3222 3212 3201 3188 3174 3161 3150 3139 3127 3116 3105 3099 3099 3099 3103 3113 3123 3134 3144 3152 3157 3160 3159 3160 3159 3155 3144 3136 3138 3148 3161 3188 3202 3208 3216 3224 3229 3231 3230 3226 3223 3217 3211 3205 3201 3173 3130 3087 3038 2994 2949 2904 2845 2791 2757 2726 2696 2668 2633 2607 2600 2604 2604 2597 2582 2564 2542 2526 2506 2475 2440 2416 2407 2382 2359 2327 2293 2275 2251 2239 2230 2223 2225 2223 2221 2218 2216 2202 2202 2198 2192 2192 2194 2190 2180 2184 2178 2174 2167 2159 2153 2140 2123 2104 2071 2032 2001 1987 1971 1959 1955 1954 1964 1964 1960 1959 1957 1946 1940 1927 1909 1891 1872 1849 1828 1807 1799 1799 1814 1830 1846 1834 1803 1767 1733 1721 1732 1752 1775 1795 1855 1911 1941 1970 1992 2000 2000 1984 1971 1976 1987 1999 2039 2111 2157 2202 2250 2298 2332 2367 2380 2377 2358 2335 2308 2246 2179 2130 2080 2034 1992 1949 1922 1926 1962 2001 2031 2057 2078 2105 2132 2152 2166 2180 2189 2197 2200 2200 2194 2171 2144 2115 2088 2058 2029 2003 1922 1874 1840 1834 1853 1873 1888 1895 1929 1980 2019 2061 2106 2148 2191 2217 2245 2272 2283 2278 2267 2248 2238 2226 2211 2189 2147 2105 2086 2077 2077
9999 2745 2757 2762 2765 2757 2743 2729 2710 2688 2658 2624 2585 2547 2512 2510 2546 2593 2625 2655 2685 2720 2762 2803 2836 2865 2892 2926 2965 3002 3022 3041 3061 3083 3105 3133 3160 3191 3210 3227 3241 3245 3245 3240 3231 3221 3211 3202 3189 3172 3156 3149 3149 3160 3179 3196 3209 3222 3234 3247 3259 3272 3285 3297 3326 3355 3371 3381 3385 3388 3395 3402 3410 3416 3423 3429 3434 3439 3443 3447 3452 3456 3459 3461 3465 3466 3465 3466 3465 3462 3460 3461 3462 3463 3469 3475 3481 3485 3490 3493 3495 3497 3501 3505 3509 3513 3513 3507 3500 3487 3477 3467 3459 3453 3446 3439 3433 3426 3419 3411 3404 3395 3386 3377 3368 3358 3348 3338 3328 3317 3306 3294 3280 3268 3268 3279 3292 3304 3315 3326 3338 3348 3357 3364 3368 3369 3367 3362 3355 3350 3348 3348 3348 3348 3347 3346 3344 3341 3336 3329 3322 3314 3305 3292 3272 3254 3237 3223 3209 3197 3192 3196 3207 3220 3232 3239 3244 3247 3245 3239 3229 3220 3211 3201 3189 3176 3163 3149 3138 3126 3115 3104 3099 3097 3096 3096 3097 3103 3114 3124 3133 3140 3142 3144 3145 3146 3145 3138 3129 3128 3136 3149 3165 3183 3200 3207 3215 3223 3229 3233 3233 3231 3227 3221 3214 3207 3202 3173 3128 3083 3039 2992 2945 2895 2831 2782 2746 2713 2698 2683 2658 2638 2638 2644 2642 2635 2623 2599 2575 2558 2538 2514 2487 2464 2446 2423 2407 2389 2357 2319 2292 2285 2277 2269 2266 2266 2260 2254 2249 2243 2243 2245 2239 2238 2238 2231 2226 2227 2219 2212 2201 2187 2172 2154 2132 2112 2087 2055 2025 1997 1979 1956 1936 1926 1923 1910 1911 1910 1902 1895 1892 1880 1855 1839 1821 1806 1803 1814 1828 1863 1884 1897 1900 1898 1853 1794 1765 1723 1724 1743 1766 1788 1838 1904 1930 1954 1971 1974 1960 1940 1927 1947 1981 2007 2070 2119 2161 2204 2255 2304 2345 2383 2395 2396 2379 2353 2322 2280 2209 2155 2103 2055 2008 1971 1928 1911 1930 1972 2007 2033 2058 2083 2106 2126 2145 2158 2169 2178 2185 2185 2178 2162 2137 2110 2083 2054 2027 2004 1956 1882 1841 1822 1829 1848 1871 1890 1925 1994 2039 2079 2120 2163 2202 2227 2257 2277 2281 2272 2254 2239 2224 2211 2192 2161 2127 2087 2065 2061 2065
9999 2759 2775 2784 2790 2784 2771 2756 2737 2715 2688 2653 2610 2573 2533 2518 2541 2586 2613 2642 2675 2715 2762 2805 2837 2871 2903 2941 2979 3009 3029 3049 3070 3090 3116 3144 3173 3202 3223 3241 3250 3250 3247 3240 3230 3219 3209 3200 3185 3167 3154 3150 3152 3163 3182 3198 3211 3224 3236 3249 3261 3274 3287 3299 3332 3358 3373 3382 3387 3391 3399 3407 3415 3423 3430 3437 3443 3448 3454 3458 3463 3467 3472 3475 3480 3482 3481 3483 3484 3482 3479 3480 3481 3481 3482 3487 3492 3495 3499 3502 3504 3506 3510 3514 3516 3515 3510 3502 3492 3480 3469 3460 3451 3444 3438 3432 3426 3420 3413 3405 3397 3389 3380 3371 3362 3353 3343 3332 3322 3313 3302 3288 3270 3255 3254 3264 3279 3292 3302 3309 3320 3332 3343 3351 3356 3358 3357 3352 3346 3342 3339 3340 3340 3340 3339 3338 3336 3333 3329 3323 3315 3308 3300 3282 3263 3243 3223 3205 3193 3180 3176 3183 3192 3205 3216 3223 3228 3232 3231 3226 3218 3209 3200 3187 3176 3163 3150 3137 3125 3114 3103 3096 3094 3094 3094 3094 3094 3097 3105 3114 3121 3125 3127 3129 3131 3131 3131 3124 3122 3128 3140 3155 3171 3186 3200 3206 3214 3223 3230 3234 3235 3233 3229 3222 3214 3206 3200 3164 3122 3076 3022 2976 2935 2882 2810 2769 2729 2699 2700 2698 2689 2679 2682 2684 2679 2673 2662 2634 2610 2590 2570 2548 2524 2503 2483 2461 2447 2430 2416 2403 2365 2340 2326 2315 2309 2308 2299 2293 2290 2288 2282 2293 2288 2280 2275 2269 2270 2266 2252 2240 2222 2202 2183 2160 2135 2113 2097 2066 2035 2005 1982 1957 1931 1910 1898 1889 1881 1874 1858 1845 1835 1825 1816 1811 1807 1810 1824 1851 1878 1905 1913 1910 1904 1900 1899 1839 1791 1750 1713 1727 1748 1780 1820 1881 1913 1930 1943 1937 1917 1899 1902 1937 1985 2029 2086 2129 2167 2206 2255 2303 2345 2387 2408 2410 2399 2372 2340 2310 2250 2181 2129 2079 2034 1994 1948 1913 1908 1933 1974 2011 2036 2059 2081 2105 2125 2138 2149 2159 2167 2168 2162 2150 2130 2105 2078 2052 2024 2002 1946 1890 1851 1815 1815 1836 1869 1897 1947 2002 2050 2095 2133 2172 2206 2234 2263 2276 2277 2266 2245 2225 2211 2194 2161 2130 2107 2060 2040 2044 2054
9999 2771 2790 2804 2808 2806 2799 2783 2763 2741 2716 2684 2641 2594 2557 2532 2541 2568 2595 2630 2672 2715 2765 2811 2843 2875 2911 2952 2992 3016 3037 3057 3077 3098 3126 3155 3184 3235 3264 3269 3260 3253 3249 3240 3227 3215 3206 3198 3176 3162 3154 3152 3156 3168 3182 3197 3210 3224 3237 3250 3263 3276 3289 3304 3332 3351 3366 3377 3385 3393 3401 3410 3419 3428 3436 3444 3451 3457 3463 3469 3473 3479 3484 3488 3493 3497 3497 3500 3501 3500 3498 3499 3499 3500 3500 3501 3503 3505 3508 3513 3515 3517 3519 3519 3517 3511 3503 3494 3482 3471 3460 3451 3443 3435 3429 3424 3418 3412 3406 3400 3391 3382 3374 3365 3356 3347 3338 3328 3317 3307 3295 3276 3254 3243 3241 3246 3258 3273 3286 3296 3306 3316 3327 3335 3342 3344 3345 3341 3336 3333 3331 3332 3332 3332 3331 3329 3328 3325 3322 3316 3310 3302 3291 3273 3255 3236 3216 3197 3180 3164 3157 3161 3176 3191 3201 3208 3213 3217 3217 3214 3207 3200 3188 3173 3161 3149 3137 3124 3112 3100 3094 3091 3092 3093 3094 3094 3091 3092 3096 3102 3108 3111 3113 3115 3117 3119 3118 3117 3121 3132 3146 3161 3175 3188 3200 3206 3214 3222 3229 3234 3236 3237 3233 3226 3217 3208 3197 3151 3111 3057 3002 2962 2924 2870 2798 2771 2740 2717 2710 2705 2700 2723 2733 2728 2717 2710 2698 2671 2646 2623 2604 2584 2562 2539 2518 2501 2487 2467 2451 2436 2417 2402 2386 2377 2368 2358 2346 2335 2331 2328 2320 2328 2321 2309 2300 2293 2289 2279 2261 2243 2218 2197 2176 2154 2133 2110 2089 2059 2029 2001 1977 1954 1932 1912 1896 1881 1871 1860 1853 1852 1850 1849 1853 1843 1845 1858 1875 1894 1910 1923 1930 1924 1915 1906 1900 1874 1803 1752 1712 1710 1731 1768 1804 1863 1900 1910 1918 1905 1879 1885 1908 1959 2005 2048 2097 2135 2174 2212 2255 2295 2336 2376 2404 2415 2405 2386 2356 2325 2287 2213 2155 2101 2057 2013 1975 1940 1911 1904 1927 1978 2012 2035 2059 2085 2106 2119 2131 2141 2148 2150 2147 2136 2121 2101 2071 2043 2018 1984 1926 1882 1841 1811 1811 1839 1878 1914 1969 2019 2065 2108 2144 2180 2210 2236 2264 2271 2264 2248 2227 2210 2194 2167 2135 2101 2071 2022 2006 2024 2044
9999 2782 2805 2820 2828 2827 2821 2808 2790 2767 2741 2711 2665 2612 2578 2555 2562 2579 2598 2628 2665 2704 2760 2810 2845 2880 2919 2965 3004 3024 3044 3065 3085 3108 3137 3166 3194 3275 3286 3279 3268 3257 3247 3238 3225 3213 3203 3190 3172 3161 3156 3155 3161 3173 3186 3197 3210 3223 3237 3250 3264 3277 3290 3305 3322 3338 3352 3365 3378 3390 3403 3413 3422 3432 3441 3450 3458 3465 3472 3478 3483 3489 3495 3500 3502 3503 3504 3507 3509 3512 3510 3510 3510 3511 3511 3512 3514 3516 3519 3523 3524 3523 3522 3519 3511 3503 3495 3483 3471 3460 3450 3441 3433 3426 3420 3415 3410 3404 3397 3388 3382 3375 3367 3359 3350 3341 3332 3323 3313 3302 3286 3264 3243 3235 3232 3236 3246 3261 3276 3287 3295 3303 3312 3319 3325 3329 3331 3330 3327 3324 3323 3324 3324 3324 3323 3321 3320 3318 3314 3310 3304 3298 3283 3266 3249 3231 3211 3193 3173 3150 3142 3144 3158 3176 3190 3198 3199 3202 3202 3201 3196 3189 3178 3163 3148 3135 3122 3110 3098 3087 3084 3085 3089 3092 3094 3091 3087 3084 3083 3089 3094 3097 3099 3101 3104 3107 3109 3114 3124 3137 3150 3163 3176 3188 3200 3207 3214 3222 3228 3233 3238 3240 3239 3234 3225 3213 3198 3147 3099 3039 2986 2939 2901 2859 2806 2793 2777 2776 2778 2780 2782 2786 2790 2771 2754 2743 2725 2704 2677 2653 2632 2615 2597 2572 2553 2537 2521 2503 2485 2467 2448 2431 2420 2415 2410 2403 2388 2375 2369 2369 2364 2357 2336 2313 2297 2285 2277 2261 2233 2216 2202 2179 2160 2143 2124 2105 2070 2039 2009 1981 1946 1923 1911 1905 1895 1892 1891 1894 1894 1900 1904 1905 1906 1900 1899 1905 1914 1925 1934 1944 1947 1940 1928 1915 1904 1882 1816 1743 1700 1699 1716 1754 1793 1853 1896 1900 1900 1858 1838 1886 1929 1978 2022 2062 2104 2139 2174 2210 2250 2282 2307 2347 2390 2401 2403 2383 2357 2331 2306 2247 2184 2132 2077 2032 1992 1957 1920 1897 1899 1924 1976 2011 2035 2059 2080 2100 2113 2123 2130 2132 2132 2123 2110 2089 2059 2031 2004 1963 1907 1870 1828 1805 1807 1845 1888 1934 1989 2037 2082 2120 2154 2187 2217 2247 2262 2258 2241 2224 2207 2190 2165 2138 2109 2073 2036 2000 1997 2017 2034
9999 2794 2818 2838 2849 2851 2846 2832 2814 2793 2764 2728 2687 2634 2592 2575 2588 2603 2619 2641 2670 2700 2757 2809 2847 2885 2927 2973 3009 3030 3052 3072 3093 3119 3148 3177 3213 3282 3286 3280 3271 3258 3245 3233 3222 3211 3202 3189 3172 3161 3157 3157 3164 3174 3186 3197 3210 3223 3236 3249 3261 3274 3287 3300 3315 3330 3345 3359 3374 3388 3402 3412 3423 3434 3444 3454 3463 3471 3479 3486 3493 3499 3504 3507 3509 3511 3513 3516 3519 3523 3526 3525 3525 3525 3525 3526 3527 3527 3528 3527 3526 3522 3518 3511 3504 3495 3482 3470 3458 3448 3439 3430 3422 3416 3410 3405 3400 3391 3380 3374 3370 3365 3358 3351 3343 3335 3326 3317 3308 3297 3277 3257 3240 3229 3226 3230 3241 3256 3270 3280 3287 3293 3299 3304 3309 3314 3316 3317 3316 3315 3315 3316 3316 3315 3315 3313 3312 3310 3307 3303 3296 3285 3272 3257 3242 3225 3207 3189 3164 3144 3134 3135 3147 3165 3178 3183 3186 3188 3188 3184 3179 3172 3163 3151 3136 3122 3109 3096 3083 3072 3066 3074 3080 3084 3086 3083 3076 3067 3069 3074 3078 3084 3092 3099 3100 3098 3105 3115 3126 3138 3150 3162 3174 3186 3197 3206 3214 3220 3225 3232 3238 3242 3243 3240 3232 3213 3189 3142 3094 3013 2974 2928 2891 2859 2841 2821 2852 2864 2857 2852 2846 2840 2828 2807 2789 2773 2751 2728 2705 2680 2657 2638 2620 2603 2588 2569 2550 2532 2515 2497 2477 2458 2453 2446 2434 2415 2401 2400 2392 2388 2378 2351 2319 2297 2278 2257 2242 2224 2204 2183 2168 2150 2129 2120 2107 2082 2042 2009 1986 1954 1922 1911 1908 1910 1913 1916 1920 1928 1929 1933 1938 1938 1939 1937 1938 1945 1952 1958 1961 1967 1966 1957 1943 1928 1912 1884 1826 1749 1698 1698 1706 1745 1783 1824 1852 1867 1856 1814 1842 1907 1952 1997 2034 2072 2109 2143 2177 2209 2238 2260 2280 2308 2341 2368 2376 2368 2345 2323 2305 2276 2224 2175 2096 2051 2007 1973 1939 1904 1891 1897 1936 1979 2009 2031 2052 2074 2094 2107 2112 2114 2116 2110 2097 2069 2037 2008 1979 1941 1896 1862 1826 1802 1808 1850 1900 1955 2008 2053 2099 2130 2160 2192 2231 2256 2257 2247 2222 2206 2187 2164 2139 2110 2079 2043 2006 1972 1977 2009 2026
9999 2804 2835 2856 2870 2875 2871 2856 2836 2814 2784 2747 2708 2658 2608 2598 2619 2638 2657 2668 2687 2703 2757 2809 2849 2889 2935 2981 3012 3034 3056 3078 3100 3129 3157 3186 3227 3257 3274 3276 3268 3256 3243 3230 3218 3208 3200 3190 3176 3162 3158 3158 3164 3175 3187 3197 3209 3222 3235 3248 3261 3274 3287 3299 3315 3330 3345 3360 3376 3391 3404 3414 3424 3435 3445 3456 3466 3476 3485 3493 3500 3505 3510 3515 3518 3522 3526 3528 3531 3533 3536 3537 3537 3536 3535 3534 3533 3531 3529 3526 3521 3515 3508 3503 3495 3482 3469 3457 3445 3434 3425 3417 3410 3404 3397 3385 3376 3369 3362 3358 3354 3353 3348 3342 3336 3328 3320 3312 3302 3290 3275 3258 3240 3226 3222 3226 3237 3251 3263 3272 3279 3285 3289 3293 3297 3300 3303 3305 3306 3306 3307 3308 3308 3308 3307 3305 3304 3302 3300 3293 3285 3273 3260 3246 3231 3216 3200 3184 3165 3144 3130 3127 3139 3154 3164 3168 3172 3174 3173 3169 3162 3155 3147 3137 3124 3110 3096 3080 3067 3055 3049 3049 3061 3067 3068 3064 3053 3050 3053 3058 3063 3073 3083 3091 3098 3100 3104 3114 3125 3137 3149 3162 3174 3185 3197 3204 3212 3217 3223 3229 3237 3243 3245 3243 3231 3210 3182 3139 3086 2996 2970 2935 2910 2914 2919 2924 2929 2931 2921 2912 2899 2883 2858 2837 2818 2798 2775 2752 2728 2702 2679 2659 2638 2619 2603 2597 2577 2559 2538 2519 2501 2481 2480 2472 2452 2421 2403 2396 2380 2366 2350 2318 2293 2272 2252 2232 2211 2192 2168 2143 2125 2115 2098 2086 2067 2031 1999 1982 1957 1932 1925 1931 1944 1950 1951 1957 1961 1964 1966 1968 1971 1971 1972 1977 1979 1984 1992 1993 1989 1989 1985 1975 1960 1939 1918 1888 1834 1764 1697 1695 1698 1731 1779 1800 1815 1827 1811 1816 1874 1921 1965 2008 2044 2080 2111 2139 2169 2194 2218 2230 2248 2274 2308 2335 2346 2342 2327 2310 2301 2292 2253 2212 2147 2070 2026 1986 1950 1915 1874 1867 1904 1944 1976 2003 2024 2045 2067 2084 2091 2096 2098 2091 2071 2044 2015 1984 1953 1918 1881 1849 1817 1796 1807 1863 1917 1970 2022 2070 2110 2137 2164 2191 2250 2256 2242 2224 2204 2184 2162 2140 2116 2087 2056 2022 1983 1939 1954 2002 2018
9999 2819 2851 2879 2892 2899 2895 2878 2857 2832 2805 2768 2722 2673 2629 2620 2645 2672 2694 2700 2701 2713 2758 2807 2848 2888 2935 2986 3017 3039 3060 3082 3104 3133 3162 3191 3211 3229 3247 3259 3259 3251 3239 3227 3216 3206 3197 3187 3177 3167 3157 3158 3164 3174 3186 3197 3209 3222 3235 3247 3260 3273 3285 3298 3312 3328 3343 3359 3375 3391 3405 3415 3426 3436 3447 3458 3468 3478 3488 3498 3502 3510 3518 3525 3528 3533 3539 3541 3543 3543 3543 3542 3540 3538 3536 3534 3532 3529 3524 3519 3512 3505 3500 3492 3480 3468 3456 3443 3431 3420 3410 3403 3393 3380 3367 3357 3350 3346 3343 3340 3338 3338 3337 3332 3327 3321 3314 3306 3298 3285 3273 3257 3241 3226 3220 3223 3234 3246 3255 3263 3270 3276 3280 3283 3286 3288 3289 3290 3292 3294 3299 3300 3300 3300 3299 3294 3293 3295 3292 3284 3275 3264 3251 3237 3222 3207 3192 3179 3164 3146 3129 3123 3130 3142 3150 3154 3158 3160 3159 3154 3147 3139 3130 3121 3110 3097 3081 3066 3052 3038 3029 3023 3028 3027 3041 3036 3033 3033 3037 3042 3051 3060 3073 3083 3093 3098 3104 3116 3127 3139 3151 3162 3173 3185 3195 3202 3208 3212 3215 3219 3225 3233 3237 3248 3235 3209 3173 3129 3076 2999 2991 2976 2963 2970 2977 2979 2982 2978 2967 2950 2930 2906 2883 2859 2836 2814 2798 2777 2751 2722 2696 2674 2649 2624 2605 2600 2597 2578 2556 2534 2514 2498 2491 2479 2454 2420 2399 2376 2356 2334 2311 2289 2268 2245 2226 2208 2180 2149 2128 2106 2080 2070 2060 2042 2021 1999 1982 1965 1950 1942 1956 1980 1987 1987 1994 2000 2001 2002 2003 2004 2004 2005 2005 2010 2011 2011 2015 2014 2010 2007 2001 1992 1971 1947 1921 1891 1841 1777 1696 1691 1695 1713 1762 1791 1801 1799 1800 1829 1893 1931 1968 2006 2044 2082 2105 2127 2148 2167 2183 2193 2205 2242 2285 2304 2316 2317 2309 2301 2300 2290 2257 2218 2164 2089 2044 2000 1964 1927 1886 1842 1869 1911 1943 1971 1995 2018 2040 2059 2067 2074 2071 2059 2042 2018 1992 1963 1931 1897 1864 1832 1803 1790 1799 1878 1930 1973 2022 2077 2115 2141 2167 2192 2235 2239 2221 2205 2185 2163 2140 2116 2093 2069 2040 2008 1960 1918 1936 1994 2011
9999 2836 2865 2897 2901 2903 2902 2899 2876 2850 2823 2791 2740 2693 2669 2667 2682 2704 2722 2733 2739 2745 2771 2807 2845 2887 2934 2984 3017 3042 3067 3090 3115 3143 3172 3200 3214 3223 3228 3234 3239 3239 3231 3225 3212 3203 3193 3183 3173 3164 3155 3156 3165 3176 3187 3196 3208 3220 3232 3245 3257 3270 3282 3294 3307 3324 3340 3356 3373 3389 3403 3414 3424 3435 3446 3457 3468 3479 3489 3499 3506 3517 3527 3534 3538 3543 3549 3553 3553 3551 3547 3543 3537 3534 3530 3528 3524 3519 3513 3508 3503 3496 3486 3476 3466 3454 3442 3429 3417 3405 3393 3380 3367 3349 3334 3328 3323 3321 3322 3322 3323 3323 3324 3323 3319 3313 3307 3300 3291 3280 3268 3255 3241 3226 3219 3221 3230 3240 3247 3256 3262 3267 3271 3274 3276 3276 3275 3275 3275 3276 3276 3277 3271 3266 3264 3270 3279 3287 3286 3278 3265 3254 3242 3229 3216 3200 3185 3171 3158 3143 3129 3119 3122 3128 3135 3140 3145 3147 3145 3139 3134 3123 3114 3105 3095 3081 3066 3051 3037 3023 3010 2998 2995 2994 2997 3010 3013 3017 3021 3029 3035 3049 3063 3076 3087 3097 3106 3117 3129 3140 3152 3163 3173 3183 3191 3199 3203 3205 3207 3207 3211 3219 3234 3249 3237 3209 3166 3115 3061 3019 3008 3011 3010 3013 3019 3021 3021 3015 3000 2977 2948 2916 2891 2862 2839 2817 2801 2794 2765 2734 2704 2678 2651 2624 2605 2600 2598 2579 2557 2535 2515 2500 2483 2463 2432 2403 2378 2352 2330 2312 2289 2265 2245 2221 2198 2172 2141 2109 2085 2058 2025 2014 2010 2011 2005 1998 1991 1988 1987 1990 1993 2033 2044 2050 2051 2052 2048 2045 2043 2042 2040 2036 2032 2034 2033 2032 2033 2030 2025 2020 2011 2002 1983 1955 1926 1892 1842 1779 1696 1687 1689 1698 1734 1763 1787 1797 1799 1848 1908 1939 1972 2005 2040 2071 2093 2107 2115 2116 2131 2161 2197 2232 2270 2281 2279 2282 2281 2282 2278 2268 2245 2219 2177 2113 2065 2024 1987 1944 1901 1843 1831 1877 1914 1942 1968 1993 2015 2035 2044 2051 2046 2029 2012 1994 1970 1942 1911 1877 1842 1811 1778 1773 1815 1890 1939 1983 2033 2087 2118 2143 2167 2188 2205 2213 2203 2187 2166 2143 2120 2096 2073 2051 2025 1995 1948 1913 1933 1984 2005
9999 2857 2884 2904 2911 2916 2918 2913 2896 2869 2840 2808 2762 2710 2695 2698 2708 2730 2749 2762 2774 2785 2793 2820 2852 2887 2936 2992 3021 3045 3069 3092 3121 3153 3183 3213 3230 3239 3239 3234 3227 3223 3221 3215 3210 3201 3191 3181 3170 3160 3151 3153 3162 3172 3183 3194 3205 3217 3229 3242 3254 3266 3278 3290 3304 3320 3337 3353 3369 3386 3401 3412 3422 3433 3444 3455 3466 3477 3488 3498 3509 3522 3536 3544 3547 3551 3556 3558 3557 3553 3548 3536 3526 3521 3518 3514 3511 3507 3503 3499 3490 3480 3470 3461 3451 3439 3427 3415 3403 3388 3373 3358 3344 3325 3305 3298 3296 3297 3301 3304 3308 3310 3311 3312 3310 3307 3302 3296 3286 3274 3263 3250 3237 3226 3217 3218 3225 3231 3239 3247 3253 3257 3261 3264 3265 3264 3261 3260 3259 3257 3254 3251 3237 3226 3228 3246 3265 3280 3280 3273 3258 3243 3232 3221 3208 3194 3179 3164 3149 3137 3122 3114 3112 3115 3121 3127 3131 3133 3131 3125 3120 3110 3099 3087 3075 3064 3050 3036 3021 3008 2994 2984 2980 2981 2986 2994 2999 3002 3008 3014 3026 3040 3055 3070 3083 3095 3108 3119 3130 3141 3152 3163 3173 3181 3186 3193 3196 3198 3200 3199 3201 3206 3219 3242 3248 3212 3171 3125 3084 3066 3056 3053 3049 3045 3051 3062 3059 3044 3015 2986 2949 2911 2884 2861 2838 2817 2802 2791 2760 2727 2698 2672 2645 2620 2602 2598 2581 2565 2544 2527 2509 2488 2456 2427 2402 2379 2353 2326 2303 2287 2266 2241 2221 2198 2166 2135 2103 2071 2038 2026 2025 2013 2016 2020 2017 2025 2027 2033 2048 2067 2090 2103 2104 2105 2106 2102 2097 2089 2083 2080 2074 2065 2058 2058 2055 2052 2050 2046 2040 2031 2021 2009 1992 1960 1926 1889 1843 1783 1696 1684 1683 1694 1708 1731 1758 1782 1799 1860 1912 1941 1968 2003 2025 2045 2062 2074 2089 2097 2100 2147 2201 2236 2255 2233 2231 2230 2232 2238 2239 2236 2223 2202 2168 2127 2081 2041 2000 1955 1911 1853 1815 1834 1885 1917 1943 1967 1992 2011 2023 2028 2022 2004 1986 1970 1949 1923 1892 1857 1821 1783 1747 1781 1838 1902 1944 1984 2035 2093 2118 2141 2162 2179 2190 2194 2184 2166 2145 2123 2101 2079 2057 2033 2008 1971 1929 1900 1911 1962 2000
9999 2880 2904 2924 2934 2940 2940 2930 2912 2887 2856 2823 2784 2728 2695 2699 2726 2757 2778 2792 2805 2819 2825 2844 2870 2895 2933 2987 3018 3042 3066 3091 3124 3159 3193 3227 3251 3260 3260 3253 3241 3228 3217 3209 3204 3198 3187 3177 3166 3155 3146 3148 3157 3168 3180 3191 3202 3214 3226 3238 3250 3262 3275 3288 3300 3317 3334 3351 3368 3385 3401 3412 3423 3434 3445 3455 3466 3477 3487 3498 3511 3528 3543 3552 3555 3557 3559 3559 3556 3550 3540 3523 3512 3508 3505 3503 3500 3496 3488 3481 3473 3463 3455 3445 3436 3425 3412 3400 3387 3373 3357 3340 3323 3305 3286 3275 3273 3276 3280 3284 3291 3299 3301 3302 3302 3300 3297 3290 3280 3269 3257 3245 3232 3222 3215 3214 3218 3223 3233 3239 3244 3248 3252 3254 3254 3253 3249 3246 3243 3238 3232 3226 3205 3200 3206 3228 3252 3273 3275 3268 3254 3237 3222 3211 3200 3186 3172 3158 3142 3128 3116 3104 3100 3103 3107 3114 3118 3119 3118 3111 3105 3097 3082 3068 3056 3044 3032 3019 3006 2991 2976 2967 2964 2967 2975 2986 2996 2999 3000 3006 3020 3035 3051 3066 3083 3099 3111 3122 3133 3146 3157 3167 3173 3175 3179 3182 3184 3187 3192 3197 3199 3200 3200 3233 3250 3205 3168 3136 3117 3109 3102 3096 3087 3077 3079 3082 3073 3047 3013 2980 2941 2904 2880 2857 2834 2814 2799 2772 2740 2710 2679 2650 2629 2608 2587 2572 2556 2538 2522 2506 2488 2460 2425 2397 2372 2349 2329 2304 2280 2262 2242 2218 2197 2173 2138 2104 2074 2050 2056 2073 2083 2060 2042 2049 2047 2062 2076 2092 2109 2118 2129 2137 2141 2140 2141 2134 2127 2120 2114 2109 2102 2093 2084 2082 2077 2070 2067 2061 2052 2041 2028 2014 1996 1960 1923 1884 1843 1788 1695 1681 1680 1690 1699 1721 1748 1775 1795 1857 1902 1927 1950 1974 2004 2015 2018 2036 2065 2090 2109 2167 2211 2246 2241 2201 2196 2187 2185 2194 2201 2201 2193 2179 2158 2126 2092 2052 2011 1969 1921 1871 1814 1810 1850 1892 1918 1941 1968 1988 2001 2005 1999 1986 1969 1950 1930 1906 1872 1837 1801 1744 1741 1799 1854 1908 1949 1987 2037 2091 2116 2138 2154 2166 2174 2174 2162 2144 2124 2102 2083 2063 2041 2019 1990 1946 1904 1882 1895 1933 1981
9999 2906 2928 2948 2960 2966 2962 2949 2927 2904 2873 2838 2800 2749 2724 2725 2748 2781 2805 2821 2835 2850 2862 2876 2893 2900 2930 2977 3010 3038 3067 3096 3133 3170 3205 3242 3265 3272 3272 3265 3252 3237 3222 3211 3203 3195 3183 3168 3155 3146 3141 3145 3154 3165 3177 3188 3199 3211 3223 3234 3246 3259 3272 3285 3297 3313 3330 3347 3365 3382 3398 3410 3421 3433 3444 3456 3467 3478 3490 3501 3516 3532 3549 3558 3560 3561 3560 3556 3550 3540 3523 3508 3499 3495 3490 3486 3481 3477 3469 3462 3455 3446 3439 3429 3420 3410 3398 3386 3373 3359 3343 3325 3308 3288 3266 3251 3248 3254 3258 3264 3273 3284 3291 3293 3293 3286 3287 3281 3274 3263 3251 3239 3227 3216 3209 3208 3210 3218 3224 3230 3235 3239 3243 3243 3243 3241 3237 3232 3228 3220 3211 3202 3199 3200 3200 3217 3243 3265 3269 3264 3250 3232 3216 3202 3190 3178 3165 3150 3136 3120 3106 3099 3100 3100 3101 3102 3106 3107 3105 3098 3087 3079 3066 3051 3037 3025 3013 3001 2986 2970 2957 2949 2948 2954 2964 2977 2989 2999 3000 3004 3019 3036 3054 3072 3089 3105 3117 3130 3143 3155 3164 3167 3166 3166 3169 3169 3171 3178 3184 3191 3196 3200 3200 3214 3254 3213 3178 3160 3156 3148 3143 3136 3118 3100 3091 3081 3065 3028 3000 2961 2921 2889 2866 2847 2826 2807 2776 2744 2713 2682 2652 2622 2601 2582 2562 2544 2530 2514 2498 2476 2450 2422 2393 2368 2343 2318 2298 2281 2259 2238 2219 2196 2171 2149 2124 2094 2071 2084 2099 2100 2105 2108 2093 2080 2082 2100 2117 2130 2142 2147 2158 2172 2175 2172 2170 2164 2157 2150 2142 2132 2122 2112 2106 2103 2096 2087 2082 2073 2062 2048 2031 2014 1997 1961 1925 1883 1831 1760 1694 1679 1680 1694 1714 1735 1761 1784 1799 1824 1871 1894 1904 1907 1952 1992 1999 2016 2052 2087 2128 2177 2216 2247 2243 2209 2185 2152 2134 2139 2158 2152 2153 2148 2139 2119 2095 2061 2025 1985 1933 1884 1828 1806 1822 1853 1889 1918 1946 1966 1988 1997 1993 1973 1954 1935 1915 1888 1852 1817 1772 1719 1755 1817 1867 1914 1952 1993 2041 2091 2115 2130 2141 2150 2157 2153 2142 2123 2103 2085 2066 2045 2024 2003 1968 1926 1887 1860 1879 1921 1962
9999 2934 2956 2975 2987 2991 2983 2966 2945 2921 2893 2854 2812 2774 2760 2757 2774 2803 2827 2847 2864 2880 2894 2907 2921 2927 2947 2978 3000 3033 3067 3101 3141 3182 3217 3255 3274 3279 3277 3267 3252 3236 3222 3210 3202 3193 3179 3164 3149 3139 3135 3136 3142 3153 3169 3184 3196 3206 3218 3231 3243 3256 3269 3282 3294 3309 3327 3344 3360 3377 3394 3407 3419 3430 3442 3454 3465 3477 3487 3498 3513 3534 3552 3561 3562 3561 3555 3544 3532 3516 3498 3489 3481 3476 3471 3466 3461 3457 3450 3442 3436 3428 3421 3415 3404 3396 3386 3374 3360 3346 3331 3313 3293 3269 3246 3229 3225 3232 3237 3245 3256 3265 3270 3274 3276 3273 3276 3272 3266 3257 3246 3233 3221 3210 3202 3200 3204 3210 3216 3221 3226 3231 3233 3233 3232 3231 3227 3219 3213 3203 3186 3184 3194 3199 3200 3216 3239 3258 3262 3258 3245 3225 3209 3195 3183 3170 3158 3145 3130 3114 3100 3099 3097 3094 3092 3090 3092 3094 3091 3082 3070 3060 3049 3035 3020 3006 2993 2979 2963 2948 2937 2931 2933 2941 2953 2968 2983 2995 2999 3012 3028 3044 3060 3075 3092 3110 3127 3140 3152 3160 3162 3159 3155 3154 3156 3157 3160 3168 3176 3184 3191 3197 3199 3213 3256 3229 3203 3196 3195 3188 3185 3170 3140 3105 3083 3061 3038 3005 2971 2932 2896 2872 2849 2827 2809 2783 2744 2709 2678 2649 2621 2593 2567 2550 2535 2516 2502 2487 2467 2445 2419 2388 2363 2339 2314 2291 2271 2253 2235 2216 2195 2173 2144 2117 2103 2097 2099 2120 2106 2097 2098 2098 2100 2100 2114 2137 2156 2166 2177 2177 2180 2187 2186 2176 2170 2165 2161 2156 2151 2145 2138 2130 2122 2112 2103 2099 2094 2083 2068 2051 2034 2019 2002 1968 1928 1883 1820 1744 1691 1673 1676 1696 1726 1760 1786 1798 1802 1812 1815 1833 1861 1898 1931 1985 2000 2021 2065 2103 2146 2196 2226 2253 2255 2227 2202 2168 2123 2112 2116 2106 2103 2110 2113 2101 2079 2050 2019 1986 1939 1895 1853 1810 1800 1816 1855 1899 1924 1944 1979 1993 1988 1965 1938 1920 1901 1869 1832 1796 1738 1710 1769 1826 1877 1920 1955 1991 2037 2084 2109 2119 2127 2133 2138 2133 2122 2104 2086 2069 2051 2032 2010 1982 1947 1909 1867 1838 1864 1909 1945
9999 2963 2987 3004 3012 3012 3003 2986 2965 2941 2913 2876 2832 2797 2789 2786 2795 2821 2846 2869 2890 2909 2926 2941 2955 2963 2973 2991 2999 3029 3069 3108 3148 3188 3221 3254 3279 3285 3280 3268 3252 3235 3219 3208 3199 3188 3173 3157 3144 3135 3131 3132 3138 3148 3164 3178 3191 3202 3215 3227 3240 3254 3267 3280 3292 3306 3321 3338 3355 3373 3390 3405 3417 3428 3439 3450 3461 3472 3484 3496 3510 3530 3550 3561 3561 3554 3540 3525 3512 3496 3483 3473 3464 3457 3451 3445 3441 3436 3430 3422 3417 3410 3403 3399 3391 3383 3374 3362 3349 3334 3319 3303 3279 3253 3227 3209 3204 3211 3217 3226 3237 3242 3248 3256 3258 3260 3264 3261 3257 3249 3240 3229 3217 3205 3198 3196 3196 3202 3207 3212 3217 3222 3223 3223 3221 3220 3216 3207 3199 3180 3155 3155 3173 3194 3202 3218 3237 3252 3255 3248 3230 3212 3199 3189 3177 3164 3151 3138 3126 3112 3100 3093 3086 3081 3077 3072 3075 3077 3073 3065 3054 3043 3031 3018 3004 2988 2972 2958 2940 2924 2915 2914 2918 2929 2944 2961 2977 2991 3003 3018 3033 3048 3063 3079 3094 3114 3135 3145 3153 3155 3152 3147 3143 3142 3142 3143 3151 3159 3168 3177 3186 3193 3199 3210 3253 3254 3225 3208 3208 3204 3202 3185 3148 3110 3076 3042 3013 2982 2946 2907 2877 2853 2830 2807 2776 2740 2704 2669 2638 2610 2584 2559 2534 2513 2505 2489 2470 2456 2437 2415 2388 2358 2333 2310 2284 2265 2245 2226 2208 2189 2156 2127 2117 2107 2099 2134 2195 2178 2145 2111 2093 2094 2104 2127 2150 2175 2194 2200 2201 2200 2196 2191 2173 2148 2142 2139 2136 2135 2136 2140 2139 2134 2125 2112 2103 2100 2100 2089 2073 2056 2039 2021 2004 1966 1924 1874 1813 1739 1690 1670 1674 1696 1729 1770 1804 1823 1838 1840 1852 1869 1903 1925 1966 1999 2020 2044 2092 2130 2167 2208 2233 2259 2272 2255 2230 2199 2161 2133 2104 2093 2084 2074 2069 2053 2045 2030 2008 1985 1945 1904 1863 1819 1795 1792 1815 1861 1901 1924 1959 1976 1972 1953 1927 1905 1881 1850 1814 1770 1716 1714 1781 1834 1887 1926 1963 1998 2040 2076 2101 2108 2113 2118 2119 2112 2103 2088 2071 2053 2036 2018 1997 1964 1931 1895 1843 1821 1850 1897 1929
9999 2992 3012 3026 3034 3034 3023 3008 2986 2961 2933 2902 2859 2815 2799 2798 2815 2841 2866 2889 2914 2939 2958 2974 2988 2996 2998 3001 3001 3037 3077 3116 3159 3199 3226 3255 3281 3291 3282 3268 3251 3234 3219 3206 3195 3183 3169 3155 3142 3132 3127 3129 3136 3147 3160 3175 3189 3200 3212 3225 3238 3251 3264 3277 3289 3299 3316 3334 3351 3369 3386 3402 3413 3423 3433 3445 3457 3469 3481 3492 3505 3522 3542 3553 3552 3541 3525 3510 3498 3484 3469 3456 3448 3439 3432 3425 3421 3416 3411 3403 3398 3394 3388 3385 3379 3371 3362 3352 3339 3324 3309 3290 3264 3237 3212 3199 3194 3191 3199 3208 3218 3220 3229 3239 3243 3248 3250 3249 3247 3241 3233 3223 3213 3202 3188 3176 3172 3190 3199 3204 3209 3212 3213 3213 3211 3210 3205 3191 3169 3149 3124 3122 3144 3176 3203 3218 3236 3247 3249 3240 3222 3204 3195 3184 3171 3158 3145 3133 3120 3107 3092 3081 3071 3063 3058 3052 3058 3060 3056 3047 3038 3027 3014 3001 2986 2970 2954 2938 2921 2904 2897 2899 2905 2919 2935 2954 2973 2991 3004 3019 3035 3051 3067 3083 3098 3118 3135 3143 3146 3145 3139 3133 3130 3130 3127 3133 3140 3149 3160 3170 3180 3189 3197 3211 3251 3259 3245 3223 3218 3212 3206 3188 3141 3098 3052 3014 2985 2955 2920 2887 2860 2834 2810 2774 2736 2706 2672 2629 2594 2566 2542 2520 2500 2481 2472 2460 2442 2424 2406 2381 2351 2324 2300 2275 2240 2239 2222 2201 2175 2145 2124 2113 2123 2149 2176 2201 2200 2200 2172 2122 2099 2111 2139 2164 2186 2208 2225 2224 2217 2208 2199 2181 2142 2113 2105 2106 2105 2105 2112 2119 2124 2124 2120 2108 2101 2100 2100 2097 2082 2064 2044 2023 2004 1963 1917 1866 1813 1735 1688 1666 1673 1697 1734 1778 1813 1839 1862 1879 1896 1914 1937 1965 2000 2022 2045 2071 2107 2147 2186 2219 2248 2274 2289 2285 2262 2231 2194 2159 2120 2093 2073 2045 2020 2004 1999 2004 1995 1974 1943 1909 1870 1829 1793 1768 1782 1817 1862 1903 1931 1948 1951 1934 1914 1892 1863 1833 1801 1738 1710 1730 1785 1833 1879 1919 1958 1994 2029 2060 2088 2100 2102 2105 2101 2091 2082 2070 2055 2037 2020 2003 1975 1944 1911 1882 1841 1813 1839 1882 1910
9999 3016 3033 3048 3056 3055 3045 3030 3010 2986 2957 2925 2889 2846 2808 2804 2831 2863 2887 2913 2941 2968 2989 3007 3022 3033 3042 3041 3034 3060 3091 3127 3173 3211 3238 3264 3286 3296 3284 3268 3251 3234 3219 3204 3191 3179 3166 3153 3139 3129 3123 3125 3133 3145 3158 3172 3185 3197 3209 3222 3235 3248 3260 3272 3284 3296 3312 3330 3347 3364 3379 3396 3407 3418 3429 3440 3452 3464 3476 3488 3499 3513 3527 3536 3534 3522 3510 3498 3485 3471 3455 3441 3430 3423 3414 3406 3400 3397 3393 3387 3382 3379 3373 3370 3366 3359 3351 3341 3330 3316 3301 3278 3251 3223 3198 3187 3179 3171 3176 3188 3195 3201 3214 3223 3228 3234 3237 3237 3236 3233 3225 3216 3207 3195 3165 3144 3140 3161 3172 3187 3200 3203 3204 3203 3202 3199 3186 3162 3138 3119 3098 3093 3122 3173 3205 3219 3233 3241 3242 3233 3217 3202 3191 3179 3166 3152 3138 3125 3113 3101 3084 3068 3054 3043 3037 3035 3041 3044 3041 3031 3021 3011 2999 2983 2967 2952 2937 2920 2902 2889 2879 2883 2895 2909 2927 2947 2968 2987 3003 3018 3034 3051 3067 3083 3099 3117 3131 3136 3137 3133 3126 3120 3117 3117 3116 3122 3131 3141 3152 3164 3176 3186 3195 3212 3244 3262 3249 3233 3223 3214 3206 3186 3126 3061 3011 2982 2955 2925 2893 2862 2834 2808 2765 2720 2685 2651 2618 2590 2549 2519 2497 2484 2470 2453 2438 2427 2413 2393 2365 2333 2310 2290 2263 2232 2211 2210 2204 2189 2158 2145 2138 2141 2166 2195 2222 2224 2219 2208 2183 2141 2125 2137 2172 2198 2220 2240 2257 2254 2244 2228 2209 2168 2110 2084 2064 2059 2055 2058 2078 2100 2103 2105 2106 2103 2100 2100 2100 2094 2082 2066 2047 2027 2006 1966 1914 1859 1803 1731 1687 1666 1676 1699 1739 1778 1816 1849 1877 1900 1920 1937 1962 1993 2020 2043 2066 2091 2124 2162 2200 2230 2262 2289 2302 2305 2297 2268 2228 2188 2147 2104 2077 2042 2007 2000 2000 1996 1975 1951 1925 1904 1873 1835 1798 1757 1748 1788 1827 1871 1901 1916 1924 1916 1900 1877 1849 1820 1775 1702 1698 1722 1782 1831 1875 1916 1952 1986 2018 2047 2073 2089 2089 2075 2067 2060 2059 2051 2038 2021 2004 1982 1955 1925 1894 1866 1834 1811 1827 1857 1886
9999 3040 3058 3072 3080 3078 3070 3056 3038 3014 2985 2950 2914 2876 2842 2839 2858 2884 2911 2939 2967 2994 3017 3036 3054 3070 3084 3087 3087 3095 3100 3138 3189 3225 3255 3281 3299 3302 3287 3270 3253 3234 3216 3198 3186 3174 3162 3149 3136 3125 3119 3122 3130 3142 3155 3169 3181 3194 3207 3219 3231 3244 3256 3268 3281 3294 3308 3325 3341 3357 3374 3392 3403 3413 3424 3436 3447 3459 3471 3482 3493 3502 3510 3516 3514 3506 3496 3485 3473 3459 3444 3427 3414 3408 3397 3390 3384 3380 3377 3371 3367 3364 3359 3355 3352 3346 3339 3330 3320 3308 3289 3266 3243 3218 3191 3172 3161 3151 3152 3162 3168 3180 3197 3207 3214 3220 3223 3224 3224 3222 3217 3210 3201 3178 3143 3114 3109 3131 3146 3162 3175 3185 3190 3191 3185 3171 3157 3134 3108 3090 3078 3087 3131 3195 3208 3220 3230 3236 3236 3227 3212 3200 3190 3177 3163 3149 3135 3122 3109 3095 3074 3056 3037 3025 3018 3018 3024 3028 3025 3016 3005 2994 2982 2966 2950 2934 2919 2903 2888 2873 2863 2869 2885 2902 2922 2943 2963 2983 3002 3017 3033 3049 3065 3080 3095 3110 3120 3121 3119 3116 3112 3108 3105 3103 3106 3113 3122 3133 3146 3158 3171 3184 3196 3216 3245 3263 3257 3237 3221 3211 3204 3191 3089 3009 2980 2955 2929 2901 2866 2834 2806 2757 2699 2660 2624 2596 2568 2532 2502 2489 2471 2452 2434 2421 2408 2394 2369 2334 2315 2301 2284 2264 2239 2223 2218 2221 2208 2193 2193 2192 2192 2194 2210 2241 2262 2266 2255 2230 2191 2176 2169 2180 2202 2230 2252 2271 2286 2283 2262 2239 2214 2165 2095 2057 2026 2007 1999 1998 2003 2019 2035 2051 2068 2084 2087 2089 2086 2079 2082 2078 2065 2044 2014 1975 1917 1860 1803 1728 1685 1664 1673 1698 1737 1777 1816 1855 1891 1914 1935 1955 1977 2005 2032 2058 2083 2109 2140 2177 2212 2241 2270 2300 2313 2321 2314 2302 2261 2220 2179 2134 2097 2063 2022 2000 1998 1989 1960 1928 1903 1900 1875 1841 1805 1760 1728 1751 1796 1833 1861 1884 1898 1896 1883 1861 1835 1808 1756 1697 1688 1710 1778 1827 1870 1909 1943 1978 2009 2035 2055 2063 2062 2038 2027 2027 2034 2030 2021 2005 1985 1961 1936 1907 1881 1855 1822 1800 1801 1825 1859
9999 3059 3083 3097 3103 3101 3097 3086 3068 3043 3012 2978 2940 2899 2875 2877 2889 2904 2933 2962 2991 3016 3039 3062 3082 3103 3119 3126 3131 3137 3141 3166 3203 3238 3271 3300 3310 3305 3289 3269 3247 3227 3208 3193 3181 3168 3156 3144 3132 3121 3114 3118 3127 3139 3151 3164 3178 3191 3204 3216 3229 3241 3253 3265 3277 3289 3301 3318 3335 3353 3370 3386 3399 3409 3420 3431 3443 3455 3467 3477 3486 3493 3498 3500 3500 3495 3487 3475 3462 3448 3433 3417 3401 3396 3386 3376 3368 3363 3360 3355 3352 3349 3345 3340 3337 3333 3326 3319 3310 3298 3278 3255 3232 3208 3185 3163 3143 3131 3128 3135 3141 3155 3170 3185 3200 3206 3211 3212 3212 3211 3208 3202 3188 3159 3125 3099 3095 3103 3121 3137 3151 3159 3163 3164 3158 3143 3129 3108 3079 3052 3060 3091 3145 3200 3207 3215 3224 3228 3228 3224 3214 3202 3191 3178 3163 3149 3134 3120 3107 3096 3073 3048 3028 3010 3001 3002 3007 3012 3010 3002 2990 2976 2964 2951 2935 2917 2901 2886 2868 2851 2847 2858 2882 2903 2923 2943 2963 2983 3002 3017 3031 3045 3060 3077 3092 3103 3107 3107 3105 3102 3100 3094 3089 3088 3099 3109 3121 3134 3146 3158 3170 3183 3195 3215 3246 3265 3261 3237 3216 3204 3189 3123 3000 2980 2957 2932 2907 2874 2837 2803 2760 2709 2649 2602 2589 2561 2526 2499 2497 2484 2461 2436 2413 2399 2395 2358 2335 2319 2313 2308 2292 2269 2259 2261 2271 2280 2275 2263 2259 2267 2275 2286 2297 2302 2306 2304 2295 2241 2198 2197 2195 2208 2235 2265 2286 2299 2300 2294 2268 2238 2209 2155 2093 2052 2012 1991 1975 1966 1970 1980 1984 1989 1994 2008 2030 2043 2048 2051 2067 2077 2073 2053 2017 1975 1919 1861 1798 1727 1684 1662 1668 1693 1729 1774 1819 1870 1907 1927 1947 1968 1990 2014 2039 2066 2093 2123 2153 2185 2219 2251 2281 2306 2326 2336 2330 2312 2290 2248 2206 2165 2125 2088 2053 2022 1999 1984 1952 1917 1900 1896 1874 1847 1812 1773 1721 1719 1760 1799 1825 1851 1870 1872 1863 1845 1822 1796 1746 1695 1672 1698 1756 1808 1851 1894 1932 1970 2003 2021 2031 2034 2031 2009 1998 1996 2007 2007 2002 1988 1967 1943 1918 1892 1869 1844 1818 1800 1798 1799 1832
9999 3075 3100 3112 3121 3122 3118 3111 3097 3072 3041 3007 2969 2926 2898 2896 2899 2922 2955 2984 3011 3035 3058 3082 3107 3129 3149 3163 3174 3184 3190 3197 3222 3254 3287 3310 3321 3310 3289 3265 3241 3218 3198 3187 3175 3162 3149 3138 3127 3116 3110 3114 3123 3134 3146 3160 3174 3187 3200 3212 3224 3236 3248 3260 3272 3284 3297 3314 3331 3345 3361 3375 3391 3405 3416 3427 3438 3450 3460 3469 3478 3485 3492 3496 3497 3491 3482 3471 3457 3441 3427 3409 3399 3389 3377 3364 3353 3347 3342 3339 3336 3333 3330 3325 3322 3319 3313 3306 3298 3283 3265 3245 3222 3199 3176 3151 3129 3113 3106 3108 3114 3127 3140 3154 3171 3184 3195 3200 3201 3200 3198 3187 3168 3141 3110 3081 3072 3074 3098 3115 3128 3133 3137 3137 3132 3117 3101 3076 3037 3028 3058 3096 3159 3201 3206 3212 3216 3219 3218 3215 3209 3203 3192 3178 3164 3148 3133 3119 3105 3090 3069 3045 3021 3000 2983 2978 2987 2993 2992 2984 2974 2960 2947 2934 2920 2904 2886 2865 2844 2832 2836 2856 2880 2902 2922 2941 2960 2979 2998 3012 3026 3042 3058 3072 3082 3089 3092 3092 3089 3083 3072 3060 3056 3066 3089 3106 3119 3131 3144 3158 3171 3184 3197 3222 3255 3268 3251 3230 3206 3177 3106 3060 2995 2966 2939 2915 2887 2845 2809 2764 2717 2675 2619 2596 2573 2543 2511 2499 2496 2487 2464 2436 2411 2397 2399 2392 2383 2372 2358 2338 2313 2298 2296 2305 2314 2324 2329 2325 2322 2325 2329 2329 2332 2334 2337 2330 2313 2270 2200 2200 2221 2245 2269 2297 2317 2316 2308 2299 2269 2236 2204 2149 2094 2059 2020 1992 1963 1943 1940 1952 1957 1960 1965 1973 1982 1993 2011 2023 2045 2062 2064 2045 2015 1975 1913 1850 1790 1724 1683 1658 1663 1691 1727 1772 1819 1869 1908 1930 1953 1976 1998 2023 2048 2072 2097 2127 2159 2192 2224 2257 2290 2313 2333 2350 2345 2325 2304 2268 2227 2186 2147 2109 2073 2043 2016 1992 1962 1926 1899 1889 1867 1843 1816 1786 1733 1710 1734 1770 1799 1825 1843 1845 1840 1830 1812 1781 1739 1695 1653 1694 1746 1797 1840 1884 1923 1959 1987 2005 2010 2011 2008 2000 1977 1966 1975 1980 1980 1970 1951 1927 1902 1882 1860 1836 1811 1794 1788 1784 1805
9999 3091 3112 3127 3139 3143 3139 3130 3117 3101 3071 3038 3001 2962 2924 2903 2913 2942 2977 3006 3030 3054 3077 3100 3127 3153 3175 3196 3209 3219 3223 3225 3243 3274 3303 3327 3334 3313 3289 3262 3236 3212 3193 3180 3168 3157 3143 3131 3120 3111 3104 3109 3117 3129 3141 3155 3168 3181 3194 3207 3218 3231 3243 3256 3269 3282 3294 3307 3320 3336 3352 3368 3384 3400 3411 3422 3433 3443 3453 3462 3471 3478 3487 3493 3495 3490 3480 3468 3454 3439 3424 3409 3396 3383 3369 3354 3341 3331 3326 3322 3320 3318 3314 3311 3307 3304 3300 3289 3279 3266 3251 3233 3212 3190 3166 3142 3118 3099 3082 3081 3088 3098 3109 3122 3136 3149 3161 3168 3176 3176 3174 3169 3154 3131 3100 3062 3039 3037 3056 3088 3103 3106 3111 3110 3106 3089 3064 3030 3010 3028 3080 3124 3185 3202 3207 3211 3213 3213 3212 3209 3205 3200 3196 3181 3166 3150 3134 3118 3103 3083 3062 3041 3019 2997 2969 2951 2954 2959 2969 2965 2956 2944 2931 2917 2904 2892 2876 2853 2832 2823 2827 2848 2880 2902 2921 2941 2960 2979 2998 3009 3023 3038 3050 3061 3067 3070 3070 3070 3066 3062 3050 3038 3039 3053 3083 3105 3118 3132 3146 3160 3174 3187 3201 3228 3260 3268 3248 3214 3190 3139 3085 3043 2996 2967 2938 2910 2876 2833 2793 2735 2687 2656 2623 2592 2564 2533 2503 2499 2498 2492 2474 2449 2435 2429 2430 2427 2421 2414 2397 2368 2342 2332 2339 2348 2359 2367 2368 2367 2367 2369 2371 2366 2363 2367 2366 2350 2326 2294 2231 2222 2256 2282 2306 2329 2347 2340 2324 2304 2271 2239 2205 2143 2089 2060 2031 2000 1966 1933 1926 1926 1933 1931 1935 1940 1946 1953 1972 1996 2012 2028 2041 2036 2012 1974 1909 1848 1786 1712 1678 1654 1659 1688 1723 1769 1817 1867 1908 1931 1955 1978 2002 2029 2055 2081 2107 2135 2166 2197 2230 2262 2295 2318 2345 2360 2360 2339 2314 2287 2245 2203 2164 2125 2090 2062 2037 2012 1983 1948 1917 1890 1864 1836 1806 1778 1744 1712 1717 1742 1773 1803 1818 1820 1818 1813 1804 1777 1734 1690 1638 1691 1741 1787 1831 1875 1914 1944 1971 1998 2001 2000 2000 1975 1939 1931 1940 1956 1957 1951 1935 1913 1891 1872 1852 1831 1807 1771 1743 1745 1777
9999 3105 3125 3143 3157 3164 3162 3149 3137 3121 3103 3072 3034 2996 2959 2934 2939 2965 2996 3023 3050 3075 3098 3124 3149 3176 3200 3219 3235 3246 3254 3257 3269 3292 3318 3345 3344 3317 3289 3259 3230 3204 3188 3175 3162 3149 3138 3125 3114 3105 3098 3103 3111 3122 3135 3148 3161 3175 3188 3201 3214 3227 3240 3253 3265 3276 3287 3298 3313 3330 3347 3363 3378 3394 3406 3416 3426 3436 3445 3454 3462 3472 3482 3490 3494 3489 3481 3469 3454 3438 3423 3408 3394 3378 3361 3344 3329 3317 3310 3306 3304 3303 3299 3292 3286 3281 3274 3266 3257 3247 3235 3219 3201 3178 3154 3130 3107 3080 3055 3052 3061 3072 3082 3092 3101 3114 3126 3136 3144 3146 3152 3149 3137 3121 3094 3048 3011 3000 3013 3039 3059 3069 3078 3077 3066 3049 3028 3007 3013 3057 3104 3152 3200 3204 3208 3211 3212 3212 3211 3208 3204 3201 3199 3184 3168 3151 3135 3118 3102 3082 3062 3042 3022 3001 2968 2936 2925 2930 2945 2945 2937 2926 2914 2901 2890 2879 2866 2846 2826 2818 2826 2848 2874 2900 2918 2938 2957 2976 2994 3006 3018 3030 3039 3045 3049 3048 3048 3047 3044 3041 3031 3027 3034 3049 3083 3104 3119 3133 3148 3162 3177 3191 3210 3241 3267 3269 3240 3208 3173 3130 3088 3042 2998 2970 2944 2918 2885 2841 2795 2737 2689 2659 2631 2603 2572 2539 2509 2500 2499 2497 2487 2477 2474 2468 2469 2465 2453 2438 2411 2387 2373 2368 2383 2391 2401 2406 2406 2407 2407 2407 2406 2401 2396 2399 2389 2364 2331 2299 2272 2265 2288 2321 2356 2374 2379 2364 2336 2305 2270 2236 2202 2134 2086 2059 2032 2005 1971 1929 1921 1917 1914 1910 1909 1907 1909 1910 1929 1945 1966 2001 2014 2014 2001 1967 1910 1847 1779 1711 1678 1652 1655 1683 1715 1766 1816 1866 1907 1932 1957 1981 2007 2035 2064 2091 2117 2144 2173 2203 2233 2263 2294 2319 2349 2370 2370 2352 2323 2297 2257 2218 2181 2143 2110 2081 2055 2029 2003 1971 1939 1905 1867 1820 1798 1771 1735 1703 1698 1716 1745 1777 1800 1803 1803 1802 1796 1758 1717 1662 1625 1686 1733 1777 1820 1863 1901 1929 1958 1983 1998 1997 1982 1946 1907 1900 1915 1933 1935 1931 1919 1899 1881 1862 1842 1822 1802 1746 1701 1713 1744
9999 3114 3136 3159 3176 3184 3180 3169 3158 3143 3124 3103 3067 3029 2990 2967 2967 2985 3012 3039 3064 3090 3122 3149 3174 3199 3221 3242 3259 3272 3283 3290 3298 3309 3337 3358 3348 3314 3285 3253 3222 3196 3182 3169 3155 3142 3130 3118 3107 3098 3092 3095 3103 3115 3129 3143 3156 3170 3184 3198 3211 3224 3236 3247 3258 3270 3282 3295 3310 3325 3341 3356 3371 3386 3399 3409 3420 3429 3437 3446 3455 3467 3478 3488 3492 3490 3483 3471 3457 3440 3424 3411 3398 3376 3355 3335 3318 3304 3292 3281 3275 3273 3267 3262 3257 3254 3249 3241 3233 3226 3217 3203 3184 3163 3141 3117 3092 3059 3031 3022 3034 3046 3059 3070 3080 3089 3095 3104 3112 3116 3129 3129 3120 3108 3080 3037 3000 3000 2999 3000 3014 3028 3040 3041 3027 3007 2996 2999 3025 3079 3126 3175 3201 3206 3209 3212 3213 3213 3211 3208 3205 3202 3200 3186 3169 3152 3136 3119 3103 3084 3064 3044 3024 3005 2976 2939 2919 2914 2922 2923 2917 2908 2897 2888 2877 2864 2851 2837 2821 2816 2830 2853 2876 2895 2914 2932 2951 2969 2986 3000 3010 3018 3024 3029 3028 3025 3025 3024 3023 3023 3021 3027 3040 3059 3083 3104 3119 3134 3148 3163 3178 3193 3214 3249 3271 3270 3244 3211 3178 3139 3099 3057 3015 2982 2951 2920 2886 2842 2796 2739 2690 2662 2634 2606 2579 2552 2529 2517 2514 2513 2514 2514 2514 2505 2505 2497 2480 2453 2416 2397 2393 2392 2412 2426 2433 2437 2437 2437 2435 2433 2430 2423 2413 2403 2400 2379 2337 2299 2294 2295 2328 2367 2400 2400 2400 2377 2342 2306 2269 2232 2191 2122 2082 2056 2031 2005 1965 1929 1920 1915 1908 1900 1895 1873 1864 1861 1882 1888 1895 1942 1979 1984 1971 1939 1906 1841 1774 1712 1677 1648 1650 1679 1712 1758 1807 1861 1907 1933 1959 1985 2012 2040 2068 2097 2124 2152 2179 2208 2238 2269 2298 2325 2357 2377 2378 2358 2324 2299 2264 2231 2198 2163 2129 2098 2072 2044 2019 1992 1958 1921 1881 1830 1797 1771 1731 1699 1687 1694 1720 1752 1783 1800 1800 1800 1783 1750 1716 1662 1615 1670 1723 1768 1811 1851 1889 1920 1946 1966 1977 1976 1962 1928 1900 1898 1899 1910 1912 1910 1901 1889 1873 1854 1835 1814 1781 1712 1688 1692 1711
9999 3119 3145 3168 3191 3200 3199 3191 3180 3166 3146 3123 3100 3063 3016 2992 2991 2999 3029 3059 3084 3110 3143 3176 3201 3220 3242 3264 3283 3297 3309 3319 3327 3337 3357 3367 3347 3309 3278 3246 3213 3191 3176 3162 3148 3135 3123 3110 3099 3088 3081 3085 3097 3110 3124 3138 3152 3166 3180 3194 3206 3218 3230 3242 3254 3266 3278 3290 3303 3318 3334 3349 3363 3377 3391 3403 3413 3421 3429 3437 3449 3462 3475 3485 3490 3490 3485 3475 3461 3445 3428 3412 3398 3372 3345 3319 3298 3289 3269 3250 3239 3235 3234 3230 3228 3226 3222 3215 3209 3203 3195 3182 3164 3144 3125 3105 3076 3042 3009 2999 3009 3024 3038 3050 3061 3070 3078 3085 3089 3095 3106 3109 3103 3092 3063 3025 2999 2996 2991 2986 2982 2990 3003 3006 2990 2962 2971 3001 3047 3095 3141 3187 3203 3208 3213 3217 3217 3214 3213 3210 3207 3203 3200 3190 3172 3153 3135 3117 3099 3081 3062 3044 3026 3009 2992 2964 2933 2911 2907 2904 2899 2897 2887 2875 2864 2853 2835 2825 2815 2816 2831 2851 2872 2891 2909 2928 2948 2963 2979 2991 3000 3006 3010 3010 3006 3003 3003 3002 3005 3011 3020 3034 3052 3071 3089 3105 3120 3135 3150 3165 3180 3195 3217 3247 3269 3267 3244 3216 3188 3147 3108 3067 3026 2988 2957 2927 2899 2856 2807 2749 2694 2665 2636 2602 2594 2582 2569 2573 2583 2572 2566 2562 2558 2545 2539 2523 2501 2465 2419 2400 2399 2420 2442 2458 2465 2467 2468 2467 2463 2458 2453 2444 2429 2415 2403 2380 2336 2304 2306 2335 2372 2403 2409 2405 2401 2381 2346 2308 2269 2228 2179 2110 2077 2052 2026 2000 1961 1934 1924 1920 1920 1905 1894 1874 1840 1822 1821 1838 1836 1880 1920 1943 1943 1922 1901 1839 1774 1714 1677 1647 1645 1674 1706 1753 1800 1857 1907 1934 1961 1989 2018 2047 2075 2102 2129 2156 2184 2213 2242 2272 2301 2328 2363 2383 2384 2365 2332 2305 2275 2243 2211 2179 2146 2114 2085 2058 2033 2007 1974 1939 1906 1864 1818 1781 1741 1701 1673 1668 1694 1722 1752 1779 1797 1796 1774 1744 1711 1652 1608 1667 1723 1767 1810 1846 1881 1911 1929 1944 1955 1957 1946 1924 1899 1893 1883 1883 1887 1892 1894 1883 1867 1848 1829 1810 1769 1702 1672 1663 1681
9999 3120 3149 3176 3200 3200 3204 3206 3204 3188 3167 3144 3122 3100 3055 3020 3005 3024 3049 3080 3109 3140 3172 3203 3224 3243 3262 3284 3307 3322 3334 3345 3362 3374 3376 3369 3338 3305 3273 3240 3208 3188 3171 3155 3141 3127 3114 3102 3089 3076 3068 3078 3091 3104 3118 3132 3146 3160 3174 3187 3201 3213 3225 3237 3249 3261 3273 3285 3297 3312 3326 3341 3355 3369 3382 3395 3405 3413 3421 3431 3444 3458 3472 3482 3488 3489 3486 3478 3465 3447 3428 3412 3401 3376 3346 3318 3298 3276 3249 3224 3209 3199 3199 3199 3196 3196 3194 3185 3178 3172 3165 3155 3140 3122 3104 3085 3058 3028 2999 2997 2997 3004 3018 3031 3043 3053 3062 3069 3073 3082 3089 3091 3088 3075 3048 3015 2993 2982 2972 2962 2955 2956 2964 2964 2933 2933 2982 3023 3067 3110 3150 3190 3205 3212 3218 3223 3223 3218 3215 3213 3209 3205 3201 3189 3172 3154 3135 3117 3099 3081 3064 3048 3033 3019 3004 2982 2954 2925 2903 2900 2898 2890 2878 2865 2852 2841 2828 2811 2808 2812 2825 2844 2867 2889 2909 2926 2942 2958 2974 2987 2996 2996 2994 2988 2981 2976 2977 2982 2995 3004 3018 3035 3055 3074 3091 3108 3124 3139 3153 3168 3183 3198 3220 3248 3267 3265 3244 3217 3190 3154 3121 3086 3041 2999 2971 2941 2908 2864 2812 2757 2702 2670 2637 2612 2599 2601 2614 2628 2641 2630 2620 2610 2598 2582 2565 2542 2516 2476 2419 2408 2432 2459 2478 2489 2497 2498 2499 2497 2491 2483 2476 2463 2445 2426 2408 2379 2323 2325 2347 2381 2410 2426 2425 2416 2405 2389 2347 2304 2263 2221 2167 2099 2073 2048 2022 1996 1964 1947 1954 1961 1950 1935 1925 1908 1879 1839 1808 1804 1795 1808 1864 1900 1911 1905 1885 1845 1785 1717 1677 1647 1642 1672 1700 1751 1799 1857 1907 1936 1964 1993 2023 2054 2085 2112 2137 2162 2189 2217 2244 2272 2299 2328 2362 2387 2385 2364 2333 2306 2277 2248 2219 2188 2156 2126 2097 2070 2044 2017 1986 1954 1924 1887 1842 1802 1761 1720 1680 1644 1655 1691 1722 1752 1769 1772 1757 1732 1703 1647 1605 1654 1714 1759 1803 1836 1867 1900 1912 1925 1934 1937 1930 1913 1885 1855 1846 1852 1863 1880 1889 1880 1862 1844 1825 1807 1763 1700 1665 1639 1653
9999 3124 3154 3183 3203 3212 3220 3225 3225 3211 3189 3167 3145 3121 3094 3066 3046 3051 3074 3101 3133 3166 3199 3222 3245 3266 3284 3306 3335 3350 3359 3371 3383 3388 3384 3364 3331 3300 3268 3235 3202 3184 3167 3151 3135 3120 3105 3092 3078 3064 3059 3069 3084 3098 3112 3126 3140 3154 3168 3182 3195 3208 3219 3232 3244 3256 3268 3280 3292 3305 3319 3334 3348 3361 3374 3385 3397 3405 3414 3425 3439 3454 3468 3479 3485 3487 3485 3478 3459 3439 3427 3415 3404 3382 3352 3323 3293 3267 3236 3209 3196 3177 3163 3156 3152 3151 3154 3149 3145 3140 3133 3125 3112 3099 3084 3063 3037 3010 2988 2982 2981 2984 2999 3013 3027 3037 3046 3053 3059 3068 3074 3075 3071 3060 3040 3009 2984 2966 2950 2936 2926 2922 2917 2916 2916 2952 3005 3043 3084 3121 3155 3189 3206 3216 3223 3228 3228 3223 3217 3214 3210 3206 3200 3186 3170 3153 3136 3119 3102 3086 3070 3054 3039 3023 3007 2987 2960 2932 2908 2899 2896 2885 2870 2855 2841 2828 2817 2804 2800 2805 2823 2844 2865 2885 2905 2921 2940 2960 2977 2985 2986 2979 2971 2960 2950 2946 2948 2962 2983 3003 3020 3038 3055 3073 3090 3108 3124 3140 3157 3172 3187 3202 3220 3250 3267 3265 3245 3217 3192 3159 3125 3091 3051 3011 2976 2942 2909 2864 2813 2763 2713 2682 2657 2644 2644 2653 2668 2684 2698 2686 2675 2661 2638 2609 2583 2554 2519 2489 2459 2452 2484 2504 2515 2521 2527 2528 2529 2526 2519 2507 2496 2480 2457 2428 2401 2343 2332 2366 2396 2417 2438 2440 2433 2418 2405 2383 2336 2293 2255 2215 2155 2095 2065 2030 2009 1998 1981 1985 1994 1991 1982 1975 1960 1938 1914 1890 1852 1810 1781 1772 1802 1847 1867 1875 1861 1828 1786 1719 1680 1650 1642 1666 1697 1746 1797 1851 1903 1935 1966 1998 2028 2059 2089 2117 2142 2168 2194 2220 2247 2273 2299 2331 2368 2393 2386 2361 2332 2306 2280 2252 2224 2196 2165 2136 2108 2082 2054 2025 1997 1969 1938 1905 1864 1825 1787 1742 1696 1647 1624 1655 1702 1727 1740 1744 1735 1715 1684 1628 1608 1649 1704 1748 1788 1822 1856 1892 1903 1910 1917 1919 1913 1897 1851 1811 1812 1825 1846 1870 1883 1879 1862 1839 1820 1802 1762 1707 1667 1627 1681
9999 3129 3159 3189 3212 3228 3240 3248 3250 3236 3213 3189 3167 3143 3122 3107 3093 3085 3101 3127 3158 3191 3217 3240 3263 3286 3310 3339 3367 3376 3383 3390 3393 3389 3379 3354 3318 3290 3260 3229 3198 3179 3162 3145 3128 3112 3097 3083 3069 3055 3049 3061 3076 3092 3106 3120 3135 3149 3163 3176 3190 3203 3215 3227 3240 3252 3264 3275 3287 3299 3313 3326 3340 3353 3366 3377 3388 3399 3409 3420 3435 3450 3464 3475 3482 3483 3479 3466 3454 3442 3430 3418 3406 3386 3355 3323 3294 3268 3242 3215 3189 3161 3132 3115 3107 3107 3113 3113 3111 3109 3101 3094 3086 3077 3065 3049 3027 2998 2970 2958 2954 2959 2975 2997 3011 3022 3031 3037 3046 3053 3059 3060 3054 3043 3027 3004 2977 2953 2933 2915 2902 2894 2898 2911 2948 2987 3025 3062 3100 3127 3156 3184 3203 3215 3227 3231 3231 3227 3219 3214 3211 3205 3200 3184 3168 3153 3137 3121 3105 3089 3073 3056 3041 3026 3011 2993 2967 2941 2916 2900 2893 2880 2864 2847 2831 2816 2804 2799 2799 2799 2817 2837 2859 2881 2903 2924 2946 2967 2979 2980 2971 2961 2948 2936 2920 2917 2922 2945 2979 3006 3023 3041 3058 3076 3094 3111 3128 3144 3160 3177 3192 3208 3224 3242 3260 3254 3235 3215 3193 3160 3127 3095 3054 3012 2976 2944 2910 2864 2813 2773 2731 2701 2687 2687 2695 2707 2721 2735 2749 2749 2735 2694 2660 2628 2594 2555 2513 2499 2492 2488 2513 2536 2547 2554 2557 2559 2560 2556 2546 2532 2517 2493 2461 2423 2387 2368 2395 2420 2435 2451 2457 2449 2435 2418 2403 2374 2324 2279 2241 2202 2132 2080 2046 2023 2008 2002 2003 2024 2033 2030 2021 2010 1992 1968 1943 1920 1889 1840 1791 1750 1757 1797 1821 1838 1835 1816 1787 1719 1681 1648 1640 1661 1694 1740 1796 1845 1893 1931 1968 2003 2034 2064 2095 2121 2147 2173 2198 2223 2248 2273 2298 2356 2381 2397 2387 2363 2333 2306 2281 2254 2228 2202 2174 2147 2123 2100 2071 2043 2015 1986 1953 1919 1883 1846 1811 1769 1722 1677 1622 1617 1668 1706 1715 1718 1714 1695 1648 1602 1599 1640 1693 1734 1773 1812 1847 1880 1899 1900 1903 1905 1893 1864 1827 1800 1800 1808 1834 1863 1879 1877 1862 1838 1814 1790 1753 1713 1673 1630 1625
9999 3124 3159 3192 3222 3245 3262 3273 3276 3264 3240 3215 3191 3168 3149 3131 3120 3117 3126 3152 3183 3211 3235 3258 3280 3305 3341 3373 3398 3400 3400 3395 3387 3376 3361 3340 3307 3280 3251 3222 3194 3175 3156 3138 3121 3104 3089 3075 3060 3046 3041 3054 3071 3088 3103 3117 3131 3145 3158 3172 3186 3200 3212 3224 3235 3247 3259 3270 3282 3293 3306 3320 3335 3347 3358 3369 3381 3394 3405 3415 3427 3440 3454 3467 3473 3475 3478 3468 3456 3444 3431 3418 3406 3387 3360 3333 3307 3278 3248 3216 3186 3151 3118 3099 3093 3081 3077 3075 3073 3074 3069 3066 3060 3054 3046 3033 3015 2991 2956 2933 2923 2930 2950 2973 2993 3007 3015 3023 3030 3039 3044 3044 3038 3028 3014 2992 2967 2942 2919 2899 2877 2872 2890 2920 2967 3008 3041 3074 3107 3132 3158 3182 3202 3212 3225 3232 3232 3228 3220 3214 3209 3204 3197 3183 3168 3152 3136 3120 3105 3089 3074 3059 3044 3029 3014 2999 2974 2951 2929 2907 2891 2876 2859 2840 2823 2808 2799 2798 2799 2799 2810 2832 2855 2879 2902 2928 2953 2969 2975 2968 2953 2941 2926 2914 2899 2897 2906 2937 2978 3007 3025 3042 3059 3076 3094 3112 3131 3148 3165 3182 3198 3213 3232 3250 3259 3248 3231 3214 3194 3163 3133 3103 3064 3023 2984 2948 2912 2863 2804 2779 2753 2737 2733 2739 2754 2764 2771 2783 2795 2801 2800 2734 2681 2642 2602 2558 2513 2500 2499 2516 2544 2567 2579 2587 2589 2590 2589 2584 2571 2556 2536 2506 2456 2404 2401 2421 2457 2470 2476 2481 2467 2452 2435 2418 2404 2363 2315 2271 2228 2180 2114 2062 2024 2019 2035 2047 2057 2068 2073 2072 2061 2044 2021 1995 1970 1943 1915 1879 1826 1781 1726 1738 1775 1803 1811 1802 1776 1718 1681 1648 1637 1657 1691 1737 1794 1840 1884 1927 1970 2008 2039 2070 2100 2124 2149 2172 2197 2222 2247 2272 2297 2384 2404 2397 2385 2357 2326 2300 2278 2255 2231 2208 2183 2158 2133 2107 2079 2052 2026 1999 1966 1933 1901 1864 1829 1799 1753 1705 1650 1607 1630 1667 1699 1701 1692 1666 1631 1595 1591 1627 1680 1725 1765 1804 1836 1866 1889 1899 1894 1880 1866 1842 1806 1799 1800 1803 1827 1856 1873 1873 1858 1832 1807 1780 1747 1712 1675 1638 1624
9999 3133 3170 3202 3231 3259 3281 3295 3302 3291 3268 3243 3217 3192 3170 3154 3145 3145 3152 3172 3201 3228 3254 3278 3301 3333 3369 3400 3403 3402 3399 3386 3372 3357 3340 3322 3297 3271 3244 3216 3190 3169 3149 3130 3112 3095 3080 3063 3047 3037 3035 3049 3067 3084 3100 3114 3128 3141 3155 3168 3182 3195 3207 3219 3230 3242 3254 3265 3278 3290 3303 3316 3328 3339 3351 3363 3375 3387 3397 3406 3418 3431 3444 3449 3457 3465 3473 3467 3456 3444 3433 3421 3408 3394 3367 3341 3314 3285 3253 3221 3190 3159 3126 3096 3076 3052 3036 3034 3032 3035 3036 3037 3033 3030 3025 3014 2999 2973 2943 2912 2897 2905 2925 2947 2969 2987 3000 3008 3016 3025 3029 3029 3024 3015 3000 2975 2949 2924 2902 2874 2851 2863 2896 2937 2981 3019 3053 3083 3110 3134 3157 3177 3191 3202 3213 3223 3227 3223 3216 3211 3207 3201 3193 3181 3167 3153 3138 3123 3108 3093 3078 3063 3048 3033 3017 3001 2980 2957 2934 2912 2892 2874 2856 2838 2820 2802 2796 2794 2794 2797 2801 2824 2848 2872 2897 2922 2952 2963 2963 2951 2935 2922 2906 2892 2878 2880 2903 2941 2977 3006 3024 3042 3060 3077 3095 3114 3133 3151 3169 3187 3203 3219 3237 3250 3254 3249 3233 3213 3196 3167 3138 3110 3072 3026 2984 2942 2907 2860 2808 2794 2782 2789 2789 2800 2812 2819 2819 2828 2827 2819 2811 2784 2710 2667 2615 2568 2525 2511 2533 2554 2579 2600 2616 2625 2624 2622 2618 2609 2596 2579 2558 2516 2477 2452 2481 2502 2508 2507 2506 2487 2471 2454 2438 2422 2406 2357 2298 2255 2213 2158 2099 2059 2039 2054 2080 2098 2109 2113 2114 2111 2097 2075 2048 2021 1994 1967 1938 1911 1865 1812 1753 1711 1720 1762 1779 1782 1760 1714 1679 1642 1633 1653 1689 1735 1788 1835 1882 1929 1975 2013 2043 2073 2103 2128 2153 2177 2201 2225 2249 2273 2297 2378 2400 2388 2368 2338 2310 2290 2272 2253 2233 2212 2189 2164 2138 2112 2086 2059 2034 2007 1975 1942 1909 1874 1845 1816 1778 1733 1686 1635 1603 1613 1638 1661 1660 1644 1615 1585 1580 1618 1669 1716 1756 1795 1826 1853 1871 1877 1870 1854 1840 1818 1798 1798 1799 1800 1818 1842 1864 1862 1844 1821 1799 1771 1742 1711 1681 1646 1630
9999 3150 3187 3221 3248 3276 3301 3305 3306 3303 3296 3273 3246 3215 3190 3177 3171 3172 3178 3187 3213 3243 3271 3297 3329 3362 3395 3404 3406 3402 3391 3376 3360 3343 3326 3309 3288 3263 3237 3210 3185 3163 3142 3122 3103 3088 3071 3053 3037 3026 3027 3038 3057 3078 3095 3109 3122 3136 3149 3163 3176 3189 3202 3214 3226 3238 3250 3262 3275 3286 3297 3308 3320 3332 3344 3356 3368 3377 3388 3400 3410 3419 3429 3439 3449 3458 3465 3466 3459 3451 3438 3422 3411 3400 3374 3346 3318 3288 3258 3228 3199 3167 3134 3102 3067 3029 3004 2999 2998 2996 3003 3007 3006 3005 3002 2992 2976 2954 2927 2900 2895 2895 2901 2926 2948 2966 2981 2992 3003 3011 3015 3015 3010 3002 2980 2954 2928 2904 2873 2838 2838 2870 2910 2960 3004 3030 3062 3095 3116 3134 3151 3167 3180 3193 3201 3206 3212 3212 3208 3206 3203 3197 3186 3175 3163 3151 3139 3125 3111 3096 3081 3066 3050 3034 3018 3002 2980 2959 2938 2918 2899 2881 2861 2841 2821 2802 2793 2789 2790 2794 2798 2815 2839 2864 2891 2915 2938 2947 2943 2931 2916 2904 2882 2858 2850 2870 2903 2940 2976 3007 3025 3043 3062 3080 3098 3117 3137 3156 3175 3194 3208 3226 3238 3245 3247 3241 3226 3209 3192 3164 3137 3110 3072 3030 2989 2947 2909 2874 2841 2832 2838 2852 2853 2859 2864 2869 2870 2869 2858 2845 2826 2806 2752 2684 2627 2583 2559 2556 2576 2594 2620 2644 2658 2666 2658 2653 2646 2632 2617 2605 2584 2547 2506 2504 2516 2528 2530 2522 2505 2489 2472 2455 2437 2420 2403 2348 2287 2242 2198 2138 2095 2078 2084 2104 2123 2144 2154 2160 2158 2146 2126 2101 2072 2043 2016 1985 1955 1925 1890 1840 1794 1742 1705 1717 1735 1750 1734 1703 1670 1635 1629 1652 1689 1730 1779 1829 1880 1930 1981 2017 2045 2074 2102 2127 2153 2179 2203 2227 2249 2272 2296 2352 2370 2363 2343 2316 2294 2276 2260 2243 2226 2211 2191 2167 2142 2118 2095 2069 2042 2014 1983 1950 1918 1888 1859 1828 1799 1753 1705 1660 1612 1598 1595 1613 1628 1622 1599 1568 1576 1616 1662 1707 1747 1788 1818 1836 1850 1853 1844 1829 1814 1796 1782 1785 1794 1800 1819 1845 1862 1862 1836 1815 1793 1766 1738 1710 1687 1659 1641
9999 3180 3208 3249 3276 3299 3313 3322 3325 3323 3317 3303 3274 3242 3214 3194 3191 3193 3195 3200 3228 3259 3289 3320 3354 3387 3403 3408 3406 3400 3383 3364 3347 3330 3314 3298 3278 3255 3231 3206 3179 3154 3132 3112 3094 3078 3058 3039 3025 3019 3021 3030 3048 3070 3089 3104 3117 3131 3145 3158 3171 3184 3197 3209 3221 3233 3245 3257 3269 3279 3290 3301 3312 3325 3338 3349 3358 3368 3380 3392 3402 3411 3421 3431 3440 3449 3455 3459 3457 3449 3437 3425 3413 3401 3375 3347 3318 3289 3261 3233 3204 3172 3138 3104 3066 3026 3001 2993 2979 2968 2968 2975 2974 2973 2972 2966 2951 2932 2908 2888 2879 2876 2886 2910 2932 2949 2963 2976 2989 2999 3002 3002 3000 2983 2955 2929 2905 2874 2836 2820 2845 2889 2931 2980 3016 3043 3070 3101 3115 3129 3145 3159 3171 3181 3187 3191 3198 3201 3201 3200 3197 3190 3179 3169 3158 3147 3135 3124 3111 3100 3085 3069 3052 3036 3019 3002 2982 2962 2943 2924 2905 2885 2865 2844 2824 2803 2793 2788 2788 2792 2796 2801 2826 2854 2885 2908 2924 2925 2916 2905 2888 2875 2846 2826 2838 2873 2905 2944 2984 3010 3028 3046 3064 3083 3101 3121 3141 3161 3180 3199 3212 3225 3233 3236 3235 3232 3222 3206 3188 3162 3137 3112 3081 3040 3001 2961 2928 2904 2898 2898 2903 2909 2908 2909 2910 2910 2908 2902 2885 2865 2842 2818 2776 2691 2637 2599 2593 2593 2618 2647 2673 2688 2699 2701 2689 2682 2670 2653 2635 2617 2602 2573 2540 2536 2546 2556 2548 2529 2503 2486 2469 2452 2434 2417 2400 2336 2278 2228 2183 2133 2100 2099 2119 2143 2166 2189 2200 2202 2194 2176 2151 2121 2092 2062 2029 1997 1967 1937 1908 1865 1821 1773 1713 1696 1699 1716 1708 1678 1643 1616 1623 1653 1687 1728 1777 1827 1874 1923 1978 2016 2045 2074 2102 2127 2150 2174 2199 2221 2243 2266 2290 2318 2328 2327 2317 2299 2277 2259 2244 2230 2216 2204 2192 2170 2148 2126 2104 2078 2049 2020 1990 1959 1929 1900 1869 1841 1816 1784 1739 1699 1653 1600 1578 1580 1595 1596 1577 1551 1572 1614 1656 1698 1738 1775 1802 1818 1828 1829 1819 1804 1789 1772 1758 1761 1774 1791 1817 1846 1858 1854 1835 1810 1790 1766 1740 1714 1694 1671 1654
9999 3218 3237 3277 3305 3316 3329 3341 3347 3347 3339 3324 3299 3270 3243 3216 3199 3199 3200 3215 3247 3280 3312 3346 3379 3404 3408 3407 3404 3395 3376 3356 3337 3319 3302 3284 3265 3245 3223 3199 3171 3143 3118 3098 3085 3066 3047 3031 3019 3015 3016 3025 3041 3063 3084 3101 3114 3128 3141 3154 3166 3179 3191 3204 3216 3228 3239 3250 3262 3272 3282 3294 3306 3319 3330 3339 3349 3360 3371 3381 3393 3404 3413 3422 3431 3439 3444 3453 3452 3447 3436 3424 3410 3397 3371 3345 3318 3290 3262 3233 3205 3173 3141 3109 3074 3037 2997 2978 2956 2937 2932 2939 2941 2940 2942 2939 2927 2909 2889 2865 2849 2846 2866 2899 2919 2935 2949 2963 2974 2983 2983 2977 2970 2953 2926 2901 2873 2837 2810 2819 2863 2908 2951 2995 3024 3052 3080 3099 3111 3125 3139 3151 3161 3167 3171 3175 3181 3186 3189 3188 3185 3179 3172 3162 3152 3142 3131 3120 3110 3101 3086 3070 3053 3036 3020 3003 2984 2965 2946 2927 2909 2889 2868 2847 2825 2804 2794 2789 2788 2791 2796 2797 2814 2844 2872 2895 2906 2904 2892 2872 2851 2837 2816 2815 2836 2877 2911 2944 2979 3006 3024 3043 3063 3082 3101 3121 3142 3164 3183 3201 3209 3216 3220 3222 3223 3221 3215 3203 3186 3163 3139 3117 3095 3056 3017 2988 2962 2944 2937 2933 2938 2936 2936 2946 2946 2937 2933 2919 2901 2876 2849 2825 2803 2699 2659 2623 2616 2635 2662 2691 2717 2727 2733 2731 2718 2706 2689 2669 2647 2626 2607 2588 2579 2577 2577 2570 2557 2527 2501 2483 2466 2448 2431 2414 2390 2326 2266 2212 2157 2116 2115 2133 2157 2181 2203 2220 2226 2228 2219 2196 2167 2137 2107 2076 2043 2011 1980 1950 1921 1886 1841 1796 1747 1699 1694 1689 1668 1641 1612 1601 1619 1649 1679 1716 1773 1823 1868 1915 1968 2011 2038 2066 2095 2118 2137 2159 2184 2209 2231 2251 2268 2294 2303 2303 2298 2282 2261 2241 2225 2216 2205 2200 2185 2165 2144 2123 2106 2083 2052 2021 1991 1962 1935 1906 1877 1850 1823 1795 1757 1724 1691 1636 1589 1562 1554 1555 1541 1542 1560 1599 1640 1685 1723 1754 1780 1799 1807 1805 1795 1781 1765 1744 1730 1730 1743 1778 1812 1840 1854 1840 1819 1801 1788 1770 1748 1724 1701 1682 1667
9999 3252 3274 3302 3321 3336 3346 3361 3370 3372 3364 3347 3327 3300 3273 3246 3224 3213 3219 3241 3272 3304 3338 3371 3402 3417 3416 3406 3400 3384 3365 3346 3328 3309 3290 3270 3251 3232 3211 3187 3159 3131 3105 3091 3078 3063 3046 3029 3017 3011 3011 3021 3039 3060 3080 3098 3111 3124 3136 3148 3161 3173 3186 3199 3210 3222 3234 3244 3254 3264 3275 3289 3301 3311 3319 3329 3340 3350 3360 3370 3381 3395 3405 3413 3421 3428 3439 3442 3443 3441 3433 3422 3410 3392 3368 3343 3318 3291 3262 3234 3205 3175 3144 3113 3079 3038 2998 2968 2939 2914 2901 2904 2907 2907 2912 2911 2902 2887 2867 2839 2817 2820 2849 2884 2907 2923 2937 2949 2960 2965 2963 2952 2938 2921 2896 2867 2836 2808 2805 2833 2882 2920 2960 3001 3028 3055 3081 3100 3108 3120 3132 3140 3147 3151 3154 3159 3165 3171 3174 3174 3171 3167 3161 3155 3145 3136 3126 3116 3107 3100 3085 3068 3051 3034 3017 3001 2983 2965 2946 2927 2910 2894 2872 2850 2827 2805 2796 2792 2790 2791 2793 2796 2801 2824 2848 2866 2877 2864 2845 2830 2816 2805 2806 2820 2852 2884 2915 2948 2980 3007 3025 3043 3062 3081 3100 3120 3141 3165 3185 3199 3201 3203 3206 3205 3207 3208 3205 3197 3181 3161 3139 3118 3102 3082 3049 3020 2999 2987 2974 2969 2969 2966 2965 2973 2975 2963 2949 2925 2899 2876 2854 2832 2811 2752 2682 2653 2654 2678 2707 2736 2753 2765 2772 2764 2747 2724 2699 2676 2653 2630 2608 2595 2588 2582 2577 2569 2555 2519 2496 2481 2464 2447 2429 2412 2381 2316 2252 2194 2142 2121 2142 2172 2195 2212 2230 2247 2253 2253 2239 2209 2178 2149 2118 2086 2054 2023 1993 1964 1933 1903 1860 1816 1768 1718 1691 1667 1636 1603 1596 1597 1611 1640 1674 1715 1779 1826 1869 1910 1956 1995 2023 2050 2074 2096 2116 2133 2157 2189 2206 2214 2236 2266 2295 2295 2277 2260 2240 2221 2206 2201 2192 2178 2163 2148 2131 2114 2102 2084 2054 2026 1998 1968 1938 1907 1879 1853 1828 1805 1774 1744 1715 1675 1621 1584 1560 1541 1535 1537 1562 1592 1630 1670 1707 1737 1758 1774 1780 1777 1768 1757 1742 1722 1704 1698 1721 1768 1806 1832 1837 1819 1802 1798 1793 1782 1764 1742 1712 1692 1679
9999 3275 3301 3317 3336 3355 3365 3377 3390 3395 3390 3382 3361 3335 3302 3276 3257 3245 3249 3269 3296 3330 3363 3396 3420 3436 3426 3403 3388 3370 3351 3333 3316 3300 3280 3259 3239 3219 3199 3171 3145 3117 3096 3086 3074 3061 3046 3030 3017 3010 3008 3017 3035 3056 3075 3091 3106 3118 3131 3143 3156 3168 3180 3193 3206 3216 3226 3236 3246 3257 3270 3281 3291 3300 3310 3320 3330 3339 3348 3357 3369 3381 3394 3404 3411 3418 3423 3428 3431 3431 3427 3418 3407 3390 3367 3342 3318 3292 3264 3235 3206 3174 3140 3107 3072 3036 2999 2967 2933 2904 2889 2881 2875 2878 2882 2885 2879 2864 2844 2821 2799 2804 2835 2865 2893 2910 2924 2935 2943 2947 2944 2931 2912 2890 2860 2830 2805 2798 2821 2860 2897 2929 2964 3000 3025 3049 3072 3092 3104 3114 3121 3128 3133 3134 3136 3142 3149 3156 3160 3160 3157 3154 3149 3144 3138 3129 3120 3111 3103 3100 3082 3062 3044 3027 3011 2999 2980 2963 2945 2927 2910 2900 2882 2858 2833 2810 2797 2791 2786 2781 2778 2779 2787 2801 2818 2831 2829 2819 2799 2791 2787 2793 2804 2831 2864 2895 2922 2951 2984 3009 3028 3047 3065 3083 3102 3124 3148 3171 3185 3185 3180 3181 3185 3185 3190 3193 3191 3183 3170 3154 3134 3115 3102 3100 3078 3049 3021 3007 3002 2999 2995 2989 2984 2984 2979 2959 2937 2914 2893 2871 2849 2827 2804 2755 2697 2683 2689 2716 2760 2782 2789 2791 2784 2771 2751 2722 2697 2670 2643 2618 2598 2588 2577 2569 2562 2554 2543 2512 2491 2475 2460 2445 2429 2412 2380 2292 2229 2181 2153 2163 2194 2207 2221 2239 2257 2274 2280 2279 2263 2227 2191 2159 2126 2094 2063 2034 2006 1977 1946 1916 1880 1835 1789 1739 1692 1657 1618 1597 1591 1592 1600 1635 1672 1715 1780 1817 1853 1893 1928 1955 2003 2025 2032 2055 2077 2096 2119 2154 2193 2198 2208 2255 2296 2286 2255 2236 2216 2197 2173 2155 2131 2130 2129 2127 2116 2105 2099 2089 2063 2032 2004 1974 1941 1908 1882 1859 1836 1815 1790 1760 1731 1705 1664 1618 1588 1558 1533 1534 1562 1592 1625 1661 1694 1717 1733 1746 1751 1746 1739 1731 1719 1703 1685 1695 1718 1762 1796 1809 1806 1795 1786 1788 1792 1793 1783 1764 1730 1703 1691
9999 3296 3314 3332 3352 3370 3385 3395 3410 3422 3422 3414 3398 3374 3344 3310 3289 3278 3279 3296 3320 3354 3389 3419 3449 3449 3424 3398 3373 3352 3333 3318 3305 3294 3270 3247 3227 3208 3183 3154 3128 3102 3091 3082 3070 3058 3046 3031 3018 3010 3006 3013 3030 3050 3067 3083 3100 3113 3125 3137 3149 3162 3175 3187 3199 3208 3218 3228 3239 3250 3261 3271 3279 3289 3300 3310 3318 3326 3333 3344 3355 3367 3380 3392 3402 3406 3410 3415 3419 3418 3413 3407 3398 3382 3362 3338 3315 3290 3264 3235 3207 3173 3137 3101 3068 3035 3000 2969 2940 2913 2887 2862 2846 2843 2844 2859 2858 2844 2824 2801 2792 2797 2819 2848 2875 2897 2911 2920 2927 2929 2924 2912 2889 2855 2824 2797 2799 2805 2837 2875 2907 2935 2963 2994 3018 3041 3062 3079 3095 3105 3110 3115 3118 3116 3120 3126 3134 3142 3145 3146 3143 3140 3137 3132 3127 3121 3113 3106 3100 3089 3071 3054 3036 3019 3003 2993 2978 2960 2943 2926 2909 2899 2880 2858 2836 2814 2794 2776 2762 2751 2748 2752 2764 2779 2789 2792 2789 2779 2764 2758 2762 2783 2809 2838 2871 2903 2930 2957 2985 3009 3028 3048 3067 3086 3106 3131 3157 3173 3177 3166 3155 3152 3155 3162 3169 3171 3171 3164 3155 3143 3127 3112 3101 3100 3089 3058 3024 3020 3011 3001 3000 2996 2981 2969 2959 2938 2916 2898 2879 2860 2841 2820 2796 2757 2721 2705 2720 2760 2801 2806 2798 2781 2764 2745 2724 2702 2678 2651 2624 2599 2589 2578 2568 2557 2545 2535 2525 2506 2488 2472 2457 2441 2425 2409 2361 2279 2220 2189 2188 2206 2224 2232 2245 2265 2284 2299 2302 2303 2285 2242 2199 2166 2133 2100 2071 2043 2016 1987 1956 1927 1899 1854 1809 1761 1715 1674 1631 1597 1587 1586 1596 1623 1662 1705 1749 1789 1822 1854 1883 1901 1899 1964 1990 2006 2025 2057 2090 2117 2173 2197 2223 2271 2294 2275 2229 2211 2192 2164 2138 2112 2081 2073 2087 2097 2102 2100 2103 2085 2062 2035 2007 1975 1939 1905 1882 1861 1841 1821 1801 1772 1745 1723 1702 1662 1624 1583 1537 1533 1554 1586 1615 1647 1675 1693 1707 1717 1722 1716 1709 1703 1693 1667 1657 1686 1720 1759 1783 1792 1785 1773 1766 1768 1782 1792 1790 1777 1751 1719 1697
9999 3308 3326 3343 3361 3382 3401 3419 3435 3450 3454 3445 3429 3413 3388 3355 3330 3311 3310 3322 3345 3372 3404 3447 3468 3449 3413 3388 3363 3336 3315 3300 3301 3284 3261 3236 3213 3192 3166 3137 3109 3094 3085 3076 3067 3056 3043 3032 3020 3010 3005 3010 3024 3041 3057 3075 3092 3106 3118 3130 3143 3155 3168 3179 3189 3200 3210 3220 3231 3241 3251 3259 3267 3277 3288 3297 3304 3310 3318 3328 3340 3352 3364 3377 3387 3393 3401 3405 3404 3404 3399 3392 3384 3369 3352 3333 3310 3285 3259 3233 3206 3172 3133 3096 3064 3032 3000 2971 2944 2918 2892 2866 2837 2821 2820 2834 2836 2824 2806 2778 2763 2791 2818 2843 2863 2881 2897 2906 2911 2912 2905 2885 2855 2820 2789 2760 2795 2817 2848 2885 2914 2940 2966 2991 3013 3032 3047 3063 3076 3086 3099 3103 3105 3101 3104 3111 3121 3128 3131 3131 3128 3126 3124 3120 3114 3111 3106 3100 3091 3075 3057 3039 3022 3008 2993 2979 2966 2952 2937 2922 2907 2895 2878 2858 2837 2817 2796 2767 2741 2724 2719 2723 2741 2755 2762 2760 2755 2739 2726 2730 2756 2789 2817 2847 2877 2906 2933 2959 2985 3009 3029 3049 3069 3089 3109 3135 3159 3169 3165 3145 3130 3124 3129 3141 3147 3149 3149 3144 3135 3128 3118 3106 3100 3085 3068 3042 3022 3035 3021 3003 3000 2991 2963 2940 2925 2912 2894 2875 2858 2842 2826 2808 2789 2760 2729 2714 2734 2786 2813 2806 2778 2749 2726 2710 2694 2672 2649 2624 2600 2591 2581 2570 2558 2547 2536 2525 2512 2498 2484 2468 2452 2436 2419 2404 2339 2280 2240 2219 2222 2245 2254 2258 2265 2278 2294 2310 2316 2312 2292 2248 2203 2169 2135 2101 2073 2046 2020 1995 1968 1940 1912 1874 1828 1784 1740 1696 1649 1599 1588 1584 1594 1599 1624 1683 1726 1765 1797 1806 1845 1888 1898 1919 1963 1993 2011 2051 2087 2121 2197 2217 2260 2284 2279 2243 2205 2183 2162 2134 2106 2065 2022 2001 2029 2045 2064 2078 2081 2069 2051 2031 2008 1977 1940 1902 1881 1860 1840 1821 1804 1782 1761 1736 1713 1690 1651 1614 1566 1532 1549 1581 1600 1628 1650 1664 1673 1684 1690 1681 1672 1665 1650 1629 1643 1689 1722 1746 1764 1773 1763 1750 1741 1741 1758 1777 1785 1785 1771 1741 1706
9999 3314 3333 3351 3369 3388 3411 3439 3462 3478 3484 3476 3462 3446 3424 3400 3376 3355 3347 3353 3372 3396 3441 3478 3475 3444 3399 3375 3350 3325 3302 3299 3287 3270 3246 3222 3200 3174 3148 3122 3097 3087 3078 3070 3061 3051 3042 3030 3020 3010 3004 3005 3017 3031 3047 3065 3082 3098 3111 3123 3135 3148 3158 3168 3178 3190 3201 3211 3221 3231 3238 3245 3255 3265 3274 3281 3288 3294 3302 3313 3325 3337 3349 3361 3370 3380 3390 3397 3396 3395 3388 3379 3369 3359 3342 3324 3305 3281 3255 3228 3201 3164 3127 3091 3062 3032 3003 2978 2954 2931 2906 2881 2847 2822 2812 2815 2816 2807 2782 2742 2743 2782 2813 2832 2849 2864 2878 2890 2894 2887 2867 2846 2815 2778 2733 2738 2792 2827 2859 2891 2917 2941 2965 2985 3002 3016 3030 3042 3053 3063 3077 3086 3086 3087 3089 3096 3108 3114 3117 3117 3115 3112 3111 3107 3102 3098 3093 3085 3074 3060 3041 3022 3006 2988 2973 2959 2947 2938 2926 2913 2901 2890 2876 2859 2840 2821 2803 2772 2739 2709 2696 2704 2722 2728 2730 2727 2721 2712 2714 2728 2770 2800 2827 2855 2883 2910 2934 2957 2981 3004 3026 3049 3071 3092 3112 3134 3155 3155 3140 3124 3108 3099 3109 3120 3125 3127 3127 3124 3115 3108 3103 3092 3070 3044 3021 3013 3018 3048 3030 3004 2993 2970 2938 2912 2897 2884 2867 2847 2833 2819 2805 2790 2773 2753 2728 2714 2726 2779 2797 2773 2739 2709 2692 2676 2658 2637 2615 2599 2594 2586 2575 2563 2551 2539 2528 2516 2504 2493 2480 2465 2449 2432 2416 2399 2335 2295 2284 2282 2288 2292 2284 2281 2277 2248 2242 2299 2296 2295 2274 2236 2200 2168 2136 2103 2078 2052 2028 2006 1979 1950 1921 1887 1844 1803 1759 1715 1662 1604 1587 1582 1595 1599 1623 1670 1714 1766 1795 1806 1850 1887 1910 1942 1976 2000 2034 2069 2096 2194 2224 2251 2271 2265 2236 2209 2180 2154 2133 2105 2062 2017 1985 1980 1984 2006 2029 2045 2050 2043 2031 2019 2006 1983 1943 1902 1878 1856 1834 1815 1800 1792 1765 1736 1712 1700 1664 1628 1597 1585 1580 1581 1589 1606 1623 1631 1634 1638 1637 1635 1627 1626 1617 1623 1644 1696 1714 1729 1742 1748 1740 1731 1717 1714 1726 1745 1768 1782 1781 1746 1712
9999 3313 3333 3353 3373 3393 3418 3450 3480 3500 3503 3502 3495 3481 3463 3442 3420 3396 3383 3384 3395 3446 3489 3499 3473 3430 3396 3372 3348 3325 3301 3286 3271 3252 3231 3209 3184 3158 3132 3106 3092 3082 3073 3063 3054 3045 3036 3027 3017 3008 3002 3001 3009 3021 3036 3053 3070 3087 3103 3115 3128 3138 3148 3157 3168 3179 3190 3201 3211 3220 3225 3233 3242 3251 3258 3265 3271 3278 3287 3298 3310 3321 3333 3346 3356 3370 3382 3390 3391 3388 3381 3369 3355 3344 3335 3317 3297 3272 3248 3223 3196 3157 3118 3090 3065 3037 3013 2994 2975 2952 2927 2899 2873 2843 2814 2805 2800 2793 2753 2724 2726 2771 2800 2817 2832 2846 2857 2865 2862 2848 2822 2803 2776 2736 2711 2743 2799 2832 2864 2896 2919 2937 2954 2971 2985 2998 3010 3020 3029 3040 3051 3057 3062 3065 3073 3087 3098 3099 3102 3103 3101 3097 3096 3092 3086 3080 3076 3070 3059 3045 3028 3008 2986 2964 2948 2938 2926 2919 2911 2899 2893 2888 2881 2871 2855 2835 2812 2786 2748 2714 2697 2693 2697 2701 2700 2699 2700 2707 2724 2747 2787 2814 2839 2866 2894 2917 2939 2960 2982 3004 3027 3050 3072 3095 3117 3140 3150 3143 3122 3106 3086 3081 3087 3098 3104 3107 3107 3103 3094 3083 3074 3060 3037 3008 2994 2989 2996 3028 3005 2988 2968 2944 2916 2889 2870 2852 2836 2818 2804 2791 2778 2765 2753 2741 2722 2708 2713 2747 2733 2704 2687 2673 2658 2642 2623 2602 2591 2592 2590 2584 2571 2558 2545 2533 2521 2509 2498 2488 2477 2465 2447 2429 2413 2392 2340 2308 2315 2328 2333 2331 2314 2292 2249 2204 2174 2169 2174 2168 2157 2156 2156 2143 2127 2100 2073 2051 2029 2009 1983 1954 1926 1900 1860 1814 1769 1726 1672 1607 1586 1580 1595 1628 1661 1699 1733 1784 1807 1837 1887 1921 1944 1974 2005 2041 2079 2113 2165 2212 2239 2254 2251 2222 2196 2175 2153 2128 2104 2065 2018 1983 1956 1942 1945 1970 1995 2013 2022 2018 2012 2006 2001 1976 1936 1898 1870 1843 1821 1804 1800 1774 1748 1721 1704 1695 1649 1612 1591 1575 1559 1554 1566 1582 1593 1596 1598 1597 1598 1599 1600 1605 1620 1641 1665 1690 1704 1713 1721 1725 1719 1712 1698 1687 1697 1715 1738 1768 1781 1758 1718
9999 3309 3329 3349 3369 3390 3417 3450 3483 3504 3514 3515 3510 3504 3501 3489 3467 3445 3428 3402 3477 3501 3501 3496 3463 3424 3391 3366 3341 3315 3293 3275 3258 3237 3216 3196 3169 3142 3117 3096 3086 3077 3067 3058 3048 3039 3030 3021 3012 3004 2998 2993 2998 3009 3024 3041 3059 3077 3094 3107 3118 3128 3136 3145 3157 3168 3178 3190 3200 3206 3212 3221 3229 3235 3242 3248 3255 3263 3273 3284 3294 3306 3318 3331 3345 3361 3373 3382 3385 3382 3374 3362 3347 3331 3319 3312 3292 3268 3242 3218 3188 3144 3104 3091 3069 3047 3028 3014 3001 2979 2954 2926 2893 2864 2832 2804 2798 2778 2741 2720 2717 2749 2775 2799 2814 2825 2833 2836 2828 2813 2787 2766 2734 2703 2712 2760 2804 2835 2866 2896 2912 2924 2937 2950 2962 2972 2984 2996 3005 3015 3024 3031 3038 3047 3062 3080 3094 3096 3092 3085 3080 3075 3074 3071 3068 3063 3060 3054 3044 3031 3015 2994 2961 2939 2922 2915 2905 2896 2891 2883 2877 2878 2879 2875 2866 2850 2821 2794 2759 2723 2694 2678 2673 2679 2681 2686 2695 2716 2741 2770 2799 2825 2851 2878 2904 2927 2950 2971 2991 3011 3033 3056 3079 3101 3122 3139 3142 3127 3108 3085 3062 3041 3040 3053 3075 3089 3083 3079 3069 3056 3044 3030 3009 2985 2966 2960 2972 2982 2977 2966 2948 2923 2896 2870 2844 2825 2807 2787 2768 2754 2744 2737 2722 2719 2711 2701 2699 2695 2683 2668 2653 2639 2624 2609 2591 2574 2569 2580 2587 2583 2572 2554 2540 2528 2515 2503 2490 2480 2472 2462 2451 2431 2411 2390 2362 2345 2357 2372 2372 2371 2349 2320 2275 2215 2156 2102 2095 2092 2087 2092 2100 2100 2087 2076 2056 2037 2018 2002 1983 1959 1934 1910 1876 1831 1786 1739 1687 1624 1588 1578 1597 1636 1677 1720 1764 1804 1839 1871 1909 1944 1973 2001 2035 2073 2110 2156 2201 2218 2231 2228 2211 2191 2166 2141 2119 2098 2063 2020 1986 1957 1924 1905 1905 1929 1957 1979 1999 2001 2001 2000 2000 1961 1914 1881 1844 1820 1807 1798 1774 1738 1711 1700 1696 1669 1610 1600 1580 1555 1534 1522 1534 1550 1561 1569 1581 1595 1596 1598 1600 1612 1629 1649 1670 1690 1700 1701 1706 1708 1700 1685 1666 1652 1667 1690 1717 1760 1786 1768 1722
