ncols         205
nrows         93
xllcorner     0
yllcorner     60
cellsize      2
NODATA_value  9999
1563 1572 1581 1588 1595 1608 1620 1623 1634 1631 1641 1666 1688 1683 1643 1610 1602 1598 1577 1518 1491 1472 1454 1441 1446 1475 1505 1543 1578 1611 1638 1653 1645 1626 1602 1577 1550 1541 1550 1570 1606 1700 1745 1765 1709 1682 1659 1654 1643 1622 1586 1527 1481 1435 1399 1397 1398 1411 1437 1461 1481 1500 1512 1514 1520 1527 1521 1512 1537 1577 1606 1629 1659 1687 1701 1702 1684 1660 1641 1623 1608 1600 1588 1569 1545 1521 1502 1476 1437 1401 1368 1333 1301 1296 1292 1288 1287 1287 1292 1297 1314 1348 1383 1413 1440 1466 1492 1519 1547 1573 1594 1609 1623 1639 1655 1669 1684 1699 1702 1711 1721 1736 1749 1763 1779 1801 1826 1850 1873 1897 1931 1966 1985 1998 2001 1991 1968 1935 1903 1856 1813 1793 1778 1772 1773 1778 1785 1793 1809 1828 1835 1819 1796 1768 1738 1709 1682 1656 1632 1612 1592 1561 1527 1498 1475 1443 1431 1439 1458 1464 1471 1473 1462 1446 1426 1402 1366 1322 1305 1338 1377 1400 1425 1449 1484 1507 1529 1553 1577 1595 1606 1626 1648 1669 1689 1719 1765 1802 1827 1853 1880 1909 1929 1940 9999
1601 1606 1620 1631 1640 1651 1664 1674 1679 1676 1677 1689 1687 1666 1611 1576 1548 1528 1498 1485 1467 1452 1446 1447 1462 1490 1525 1565 1603 1636 1665 1683 1679 1663 1640 1611 1596 1591 1591 1589 1599 1656 1720 1770 1763 1718 1703 1693 1666 1636 1605 1540 1487 1451 1420 1411 1433 1462 1485 1503 1514 1526 1537 1542 1548 1558 1563 1564 1576 1602 1631 1655 1681 1701 1709 1711 1703 1687 1670 1647 1617 1602 1595 1572 1545 1519 1499 1464 1426 1392 1361 1329 1299 1296 1291 1288 1287 1288 1293 1298 1320 1355 1391 1422 1451 1478 1507 1544 1569 1585 1593 1600 1611 1623 1634 1646 1661 1679 1688 1699 1707 1719 1730 1742 1757 1780 1804 1827 1849 1871 1895 1919 1942 1962 1971 1969 1956 1929 1902 1871 1837 1813 1807 1807 1808 1810 1816 1821 1843 1862 1854 1820 1787 1754 1722 1693 1665 1638 1612 1592 1571 1539 1509 1485 1463 1458 1469 1486 1502 1504 1506 1500 1484 1463 1438 1409 1367 1313 1303 1341 1393 1427 1455 1483 1514 1546 1570 1588 1606 1620 1629 1646 1667 1688 1713 1748 1789 1820 1846 1871 1896 1933 1952 1964 9999
1649 1658 1676 1680 1688 1700 1702 1704 1704 1701 1696 1681 1660 1634 1598 1555 1520 1495 1480 1465 1453 1453 1461 1468 1483 1500 1540 1584 1624 1662 1692 1708 1708 1701 1680 1652 1635 1630 1624 1616 1607 1639 1694 1749 1781 1757 1743 1708 1680 1651 1621 1533 1491 1476 1455 1459 1477 1505 1518 1529 1540 1551 1563 1569 1576 1588 1600 1608 1617 1628 1647 1662 1676 1692 1707 1715 1713 1700 1687 1652 1618 1600 1588 1566 1542 1518 1490 1447 1406 1374 1344 1313 1298 1295 1291 1287 1287 1290 1296 1301 1331 1365 1398 1428 1458 1487 1526 1570 1584 1588 1583 1581 1589 1601 1609 1619 1634 1651 1658 1668 1683 1698 1707 1718 1732 1753 1777 1801 1822 1843 1863 1881 1903 1926 1935 1940 1938 1927 1907 1897 1883 1868 1860 1856 1852 1846 1847 1852 1873 1876 1860 1822 1787 1751 1716 1681 1648 1620 1598 1592 1566 1530 1499 1493 1488 1498 1515 1530 1543 1543 1539 1521 1500 1474 1445 1413 1371 1314 1308 1356 1405 1441 1474 1507 1546 1579 1605 1618 1630 1644 1655 1668 1687 1710 1741 1774 1808 1836 1863 1890 1923 1962 1994 1992 9999
1693 1700 1704 1706 1707 1709 1713 1714 1713 1706 1697 1672 1647 1621 1592 1546 1504 1485 1467 1457 1457 1474 1491 1493 1498 1507 1547 1592 1636 1680 1709 1726 1729 1720 1707 1691 1672 1663 1654 1643 1638 1661 1688 1730 1774 1785 1766 1721 1686 1651 1613 1516 1496 1493 1488 1501 1513 1527 1543 1554 1566 1577 1589 1596 1603 1612 1624 1639 1649 1649 1643 1636 1648 1674 1700 1704 1705 1699 1674 1637 1606 1586 1572 1556 1534 1512 1480 1435 1392 1358 1326 1299 1296 1293 1289 1287 1289 1293 1298 1316 1348 1379 1411 1441 1468 1497 1549 1574 1576 1563 1552 1556 1563 1572 1582 1593 1608 1621 1626 1638 1653 1666 1678 1690 1705 1724 1746 1768 1791 1811 1830 1849 1871 1890 1904 1914 1922 1931 1930 1928 1929 1923 1914 1904 1893 1881 1876 1881 1885 1876 1851 1816 1784 1749 1712 1675 1636 1603 1591 1593 1578 1539 1522 1524 1543 1563 1573 1579 1582 1579 1563 1538 1510 1482 1451 1416 1371 1316 1313 1366 1412 1451 1488 1531 1574 1607 1625 1642 1657 1668 1680 1691 1710 1737 1766 1796 1823 1851 1878 1909 1950 1990 2001 2002 9999
1708 1709 1713 1718 1720 1720 1723 1723 1715 1706 1695 1669 1643 1616 1586 1546 1507 1485 1464 1460 1472 1492 1510 1520 1519 1529 1560 1594 1641 1691 1715 1736 1747 1739 1726 1715 1704 1695 1685 1675 1674 1687 1699 1714 1762 1790 1778 1732 1692 1649 1609 1526 1499 1500 1511 1528 1541 1554 1567 1580 1591 1603 1612 1618 1629 1636 1644 1649 1637 1616 1604 1603 1622 1643 1660 1671 1670 1651 1622 1600 1587 1569 1556 1541 1523 1502 1462 1419 1378 1340 1309 1298 1294 1291 1288 1288 1291 1295 1299 1327 1359 1391 1426 1462 1491 1518 1550 1543 1536 1526 1522 1528 1534 1543 1554 1565 1581 1589 1595 1608 1620 1632 1644 1659 1675 1692 1712 1729 1749 1773 1796 1814 1829 1841 1869 1896 1916 1959 1970 1975 1980 1979 1979 1970 1952 1923 1903 1897 1890 1865 1834 1807 1773 1736 1702 1674 1631 1597 1593 1597 1595 1594 1602 1606 1610 1614 1616 1616 1612 1601 1578 1550 1522 1495 1458 1418 1373 1319 1319 1376 1420 1461 1501 1553 1601 1622 1642 1662 1680 1695 1705 1716 1734 1761 1790 1817 1843 1870 1896 1930 1970 2000 2003 2005 9999
1718 1719 1723 1728 1732 1732 1730 1724 1715 1704 1688 1664 1638 1612 1579 1539 1500 1480 1464 1466 1485 1504 1534 1552 1551 1558 1581 1598 1636 1689 1716 1740 1761 1759 1749 1744 1730 1717 1710 1702 1698 1698 1700 1712 1760 1793 1784 1741 1698 1648 1606 1567 1526 1526 1542 1555 1570 1582 1594 1607 1620 1629 1634 1638 1647 1652 1650 1641 1622 1600 1595 1594 1593 1605 1615 1621 1616 1595 1585 1576 1567 1552 1539 1526 1510 1481 1435 1396 1361 1320 1299 1298 1294 1290 1288 1289 1292 1297 1307 1339 1371 1403 1447 1484 1503 1523 1509 1486 1485 1483 1488 1500 1505 1515 1526 1538 1550 1556 1563 1572 1584 1599 1613 1630 1645 1660 1673 1686 1708 1731 1748 1773 1794 1804 1834 1881 1930 1991 1999 2006 2012 2013 2014 2011 2000 1974 1942 1915 1888 1859 1826 1797 1758 1718 1697 1678 1637 1611 1614 1627 1632 1630 1634 1637 1642 1648 1657 1650 1639 1614 1587 1559 1531 1504 1463 1420 1375 1323 1325 1377 1422 1467 1511 1561 1605 1631 1656 1678 1699 1721 1737 1749 1762 1779 1803 1833 1862 1889 1916 1946 1977 2000 2006 2008 9999
1728 1730 1733 1736 1737 1736 1732 1721 1710 1701 1679 1656 1632 1608 1573 1533 1497 1478 1466 1474 1494 1524 1559 1581 1585 1585 1593 1598 1625 1685 1717 1742 1765 1776 1778 1768 1751 1739 1732 1727 1721 1712 1702 1723 1773 1797 1784 1740 1699 1638 1598 1574 1555 1561 1574 1585 1598 1619 1634 1643 1651 1655 1656 1659 1662 1658 1650 1637 1612 1592 1573 1560 1553 1560 1568 1572 1570 1564 1558 1552 1543 1532 1520 1511 1491 1457 1408 1367 1330 1301 1298 1299 1295 1291 1289 1290 1294 1298 1318 1347 1379 1415 1461 1500 1500 1501 1463 1437 1418 1415 1422 1438 1456 1476 1495 1508 1519 1529 1532 1536 1541 1548 1569 1599 1612 1620 1631 1648 1675 1696 1704 1728 1754 1792 1845 1903 1963 2000 2005 2017 2031 2035 2037 2031 2012 1994 1957 1919 1886 1855 1823 1793 1755 1710 1698 1686 1664 1654 1654 1665 1667 1664 1666 1669 1675 1679 1681 1668 1646 1615 1587 1561 1534 1509 1471 1423 1378 1328 1331 1381 1423 1466 1513 1570 1611 1639 1668 1694 1717 1746 1767 1778 1785 1793 1812 1844 1875 1903 1925 1954 1980 2000 2006 2008 9999
1737 1738 1740 1740 1739 1736 1730 1717 1706 1694 1671 1647 1623 1600 1564 1526 1495 1476 1469 1482 1500 1543 1582 1600 1600 1599 1593 1590 1599 1673 1713 1740 1766 1781 1787 1784 1772 1760 1756 1751 1750 1746 1734 1749 1793 1802 1788 1741 1699 1653 1615 1588 1588 1596 1624 1647 1664 1674 1680 1684 1682 1679 1676 1675 1669 1658 1644 1628 1609 1583 1551 1524 1509 1509 1517 1523 1526 1534 1531 1528 1520 1509 1499 1486 1464 1432 1393 1337 1303 1296 1301 1299 1297 1293 1292 1294 1296 1299 1323 1353 1384 1419 1456 1482 1483 1450 1404 1389 1371 1360 1360 1377 1403 1421 1438 1461 1483 1501 1500 1497 1500 1499 1506 1534 1563 1585 1598 1610 1641 1692 1699 1725 1767 1808 1864 1921 1979 2002 2013 2029 2047 2059 2059 2051 2023 1990 1951 1913 1883 1848 1813 1797 1782 1747 1725 1712 1701 1702 1702 1704 1703 1697 1698 1699 1692 1685 1675 1659 1631 1605 1580 1554 1530 1509 1477 1426 1380 1334 1340 1390 1429 1468 1511 1568 1611 1640 1670 1698 1729 1754 1772 1783 1789 1794 1814 1850 1884 1904 1925 1950 1976 2000 2003 2007 9999
1745 1744 1742 1740 1736 1732 1725 1712 1701 1683 1663 1640 1616 1589 1553 1518 1493 1476 1473 1487 1508 1555 1599 1600 1602 1603 1603 1595 1597 1648 1706 1730 1759 1778 1789 1791 1788 1781 1778 1776 1780 1781 1773 1778 1798 1801 1793 1753 1711 1675 1660 1688 1700 1704 1709 1714 1720 1723 1722 1720 1712 1698 1692 1682 1670 1654 1638 1621 1605 1574 1538 1506 1488 1477 1480 1482 1490 1503 1503 1502 1495 1480 1467 1454 1434 1404 1359 1314 1303 1311 1322 1311 1298 1297 1297 1297 1298 1299 1323 1356 1390 1407 1418 1428 1428 1404 1360 1334 1320 1308 1299 1299 1322 1353 1379 1418 1436 1453 1457 1468 1490 1490 1491 1499 1529 1568 1594 1599 1636 1689 1713 1744 1784 1832 1885 1937 1983 2005 2020 2038 2059 2081 2082 2071 2030 1987 1948 1906 1890 1867 1840 1823 1822 1803 1790 1776 1759 1749 1744 1749 1757 1743 1729 1706 1694 1663 1640 1623 1606 1583 1563 1539 1517 1501 1474 1426 1384 1341 1346 1389 1427 1467 1509 1559 1602 1631 1661 1689 1714 1737 1754 1764 1773 1786 1804 1835 1869 1900 1917 1935 1955 1979 2001 2005 9999
1751 1746 1741 1735 1730 1725 1717 1705 1692 1673 1653 1632 1611 1583 1548 1511 1491 1477 1476 1488 1509 1561 1600 1606 1613 1621 1623 1611 1602 1630 1694 1720 1744 1767 1785 1793 1795 1797 1797 1802 1806 1807 1799 1794 1797 1799 1801 1777 1744 1722 1710 1718 1726 1732 1743 1755 1764 1764 1760 1751 1736 1716 1697 1683 1668 1652 1636 1621 1605 1574 1534 1498 1471 1451 1439 1435 1444 1464 1462 1463 1459 1446 1436 1423 1403 1374 1321 1307 1338 1377 1368 1327 1299 1297 1295 1294 1295 1298 1323 1361 1397 1398 1402 1406 1401 1363 1318 1299 1298 1298 1298 1299 1299 1299 1326 1369 1394 1406 1419 1441 1475 1492 1495 1508 1535 1570 1594 1624 1668 1707 1735 1765 1798 1846 1896 1937 1975 2006 2023 2043 2065 2087 2104 2103 2025 1994 1957 1918 1908 1904 1902 1882 1873 1855 1838 1823 1805 1788 1783 1786 1780 1759 1727 1700 1669 1638 1610 1588 1565 1548 1531 1516 1502 1483 1460 1422 1387 1349 1353 1390 1426 1466 1506 1548 1586 1617 1644 1671 1695 1709 1718 1730 1743 1760 1781 1808 1832 1862 1888 1906 1921 1949 1985 2002 9999
1756 1749 1738 1729 1722 1716 1709 1700 1682 1663 1645 1624 1603 1571 1539 1506 1490 1479 1479 1491 1514 1568 1606 1619 1634 1645 1648 1639 1612 1618 1673 1710 1731 1755 1777 1793 1800 1807 1814 1819 1826 1828 1815 1802 1799 1804 1808 1804 1789 1758 1741 1742 1752 1758 1772 1789 1798 1800 1790 1778 1757 1725 1699 1684 1668 1651 1634 1617 1602 1568 1529 1491 1451 1426 1410 1405 1406 1418 1415 1421 1420 1410 1402 1391 1372 1341 1310 1330 1389 1405 1387 1333 1298 1295 1291 1291 1293 1297 1314 1351 1385 1400 1399 1399 1375 1320 1299 1297 1296 1296 1297 1298 1298 1299 1299 1330 1372 1395 1398 1428 1466 1493 1508 1529 1558 1588 1619 1655 1697 1726 1753 1779 1812 1853 1895 1931 1964 1996 2016 2036 2059 2082 2100 2100 2000 1999 1986 1985 1977 1964 1942 1921 1914 1903 1880 1860 1839 1816 1797 1782 1763 1725 1693 1654 1616 1600 1580 1542 1505 1499 1491 1475 1447 1452 1436 1410 1386 1359 1362 1388 1419 1458 1497 1533 1568 1599 1626 1651 1669 1680 1690 1702 1714 1728 1746 1766 1791 1817 1842 1863 1884 1905 1951 2000 9999
1762 1752 1740 1726 1715 1709 1703 1690 1670 1651 1634 1616 1592 1557 1524 1498 1491 1481 1483 1494 1521 1577 1614 1636 1656 1671 1674 1672 1648 1626 1651 1695 1719 1746 1772 1793 1807 1821 1831 1841 1848 1849 1837 1825 1813 1817 1820 1815 1804 1786 1769 1769 1773 1777 1787 1798 1802 1816 1801 1789 1760 1728 1702 1682 1663 1645 1628 1611 1589 1555 1520 1481 1430 1411 1407 1409 1408 1408 1399 1394 1386 1374 1365 1355 1335 1317 1319 1358 1402 1419 1402 1341 1298 1294 1290 1290 1291 1296 1300 1334 1366 1388 1391 1375 1340 1299 1297 1296 1296 1296 1297 1297 1298 1299 1298 1328 1362 1391 1407 1437 1477 1506 1530 1553 1577 1606 1645 1681 1712 1740 1769 1796 1828 1862 1895 1926 1954 1982 2001 2014 2033 2051 2070 2076 2010 2015 2015 2021 2016 2003 1977 1953 1939 1921 1904 1891 1863 1830 1796 1758 1724 1691 1650 1607 1592 1592 1569 1525 1492 1464 1443 1425 1410 1406 1409 1393 1383 1366 1361 1382 1410 1450 1488 1523 1554 1583 1609 1625 1638 1647 1656 1668 1681 1694 1702 1716 1739 1770 1797 1819 1848 1882 1928 1987 9999
1769 1756 1740 1725 1712 1703 1694 1675 1657 1639 1621 1603 1570 1533 1499 1496 1491 1484 1486 1495 1521 1586 1621 1649 1674 1692 1699 1700 1694 1667 1661 1682 1707 1740 1772 1800 1813 1831 1845 1857 1864 1863 1857 1849 1840 1838 1831 1825 1814 1803 1791 1786 1786 1779 1782 1786 1790 1798 1792 1777 1749 1719 1700 1682 1659 1638 1619 1601 1569 1538 1506 1464 1421 1416 1435 1447 1452 1454 1421 1403 1395 1383 1360 1346 1329 1319 1330 1372 1409 1434 1404 1348 1299 1295 1291 1290 1291 1295 1298 1313 1339 1359 1359 1344 1312 1299 1298 1297 1298 1299 1299 1298 1298 1299 1313 1341 1374 1398 1429 1462 1497 1520 1544 1569 1594 1626 1664 1701 1726 1751 1778 1808 1836 1863 1887 1913 1939 1963 1979 1988 1995 1999 2013 2024 2032 2051 2050 2049 2036 2020 2002 1978 1957 1936 1917 1900 1869 1833 1796 1735 1693 1660 1619 1597 1591 1593 1572 1538 1507 1493 1472 1451 1445 1414 1395 1360 1381 1375 1363 1373 1399 1436 1475 1512 1541 1567 1584 1594 1606 1614 1622 1634 1648 1660 1676 1695 1699 1736 1774 1796 1831 1874 1923 1985 9999
1777 1761 1743 1725 1710 1698 1678 1659 1641 1624 1606 1576 1536 1501 1497 1493 1489 1487 1490 1497 1532 1589 1625 1655 1683 1700 1701 1702 1702 1705 1697 1696 1702 1735 1771 1800 1818 1841 1860 1870 1873 1869 1862 1855 1849 1843 1837 1830 1820 1810 1800 1795 1786 1775 1768 1766 1766 1767 1756 1747 1726 1704 1686 1668 1648 1628 1610 1580 1545 1520 1485 1435 1422 1450 1476 1490 1497 1504 1494 1486 1484 1428 1392 1373 1343 1325 1336 1375 1412 1450 1416 1362 1301 1296 1294 1293 1294 1296 1298 1299 1313 1328 1329 1316 1299 1296 1298 1299 1300 1299 1299 1300 1299 1306 1332 1358 1389 1419 1450 1480 1509 1531 1553 1577 1605 1643 1679 1711 1735 1759 1783 1807 1831 1853 1871 1894 1917 1934 1942 1952 1970 1992 1999 2015 2063 2087 2082 2071 2053 2033 2010 1990 1967 1945 1924 1905 1869 1829 1782 1700 1649 1617 1614 1610 1612 1602 1592 1572 1552 1535 1517 1506 1503 1484 1451 1408 1394 1389 1373 1368 1387 1413 1453 1494 1521 1541 1553 1562 1575 1586 1599 1601 1612 1632 1662 1688 1699 1734 1781 1804 1844 1890 1937 1996 9999
1795 1772 1747 1724 1704 1682 1661 1641 1623 1606 1583 1544 1505 1498 1496 1493 1489 1488 1491 1497 1532 1591 1625 1657 1689 1699 1705 1711 1719 1727 1728 1715 1718 1745 1779 1799 1825 1849 1870 1879 1878 1864 1846 1839 1835 1832 1826 1823 1818 1812 1803 1797 1781 1759 1749 1741 1738 1734 1721 1710 1701 1680 1661 1645 1629 1612 1585 1542 1511 1488 1453 1432 1455 1486 1509 1525 1534 1540 1531 1524 1516 1485 1439 1401 1369 1334 1340 1381 1419 1464 1433 1376 1317 1299 1297 1296 1297 1297 1295 1295 1298 1302 1303 1299 1295 1294 1296 1299 1305 1301 1299 1287 1295 1315 1343 1371 1400 1429 1458 1486 1513 1537 1560 1583 1611 1649 1687 1721 1746 1768 1786 1799 1816 1832 1843 1863 1883 1902 1907 1916 1944 1979 2000 2034 2088 2103 2100 2084 2061 2035 2011 1989 1968 1948 1926 1904 1858 1809 1750 1690 1644 1639 1664 1673 1670 1641 1624 1611 1597 1575 1559 1549 1536 1523 1511 1503 1463 1415 1387 1370 1375 1393 1420 1461 1499 1510 1519 1530 1549 1573 1592 1599 1600 1625 1655 1684 1705 1754 1796 1836 1878 1922 1972 2001 9999
1787 1761 1735 1710 1685 1664 1644 1623 1604 1579 1552 1528 1506 1499 1497 1493 1489 1487 1490 1497 1534 1601 1633 1663 1694 1708 1720 1732 1745 1757 1760 1764 1767 1773 1792 1804 1835 1859 1873 1879 1875 1854 1828 1812 1810 1808 1807 1805 1806 1805 1801 1786 1760 1739 1728 1719 1712 1703 1689 1676 1667 1650 1632 1619 1605 1580 1539 1498 1481 1454 1443 1466 1499 1521 1542 1560 1572 1576 1566 1555 1531 1505 1465 1423 1386 1345 1347 1392 1439 1476 1445 1396 1351 1322 1301 1299 1297 1294 1292 1292 1294 1296 1296 1294 1293 1295 1299 1320 1331 1313 1299 1296 1303 1322 1348 1377 1405 1432 1457 1482 1507 1536 1565 1592 1625 1662 1697 1731 1769 1783 1785 1783 1793 1799 1806 1817 1830 1851 1888 1899 1932 1974 2005 2048 2098 2110 2106 2089 2066 2042 2019 1994 1969 1946 1923 1899 1841 1786 1729 1692 1679 1692 1708 1709 1700 1670 1651 1634 1616 1603 1599 1583 1566 1549 1531 1511 1495 1445 1399 1382 1373 1381 1396 1422 1455 1486 1499 1508 1535 1565 1590 1599 1615 1635 1663 1689 1733 1784 1824 1862 1903 1947 1997 2003 9999
1769 1739 1714 1690 1661 1644 1625 1605 1578 1540 1512 1505 1513 1513 1499 1496 1490 1485 1487 1496 1540 1607 1641 1674 1703 1719 1733 1752 1769 1785 1788 1800 1804 1808 1814 1834 1847 1859 1858 1861 1884 1875 1833 1799 1799 1795 1782 1774 1780 1780 1762 1750 1731 1716 1708 1699 1684 1669 1656 1644 1631 1617 1602 1587 1567 1537 1499 1483 1464 1457 1478 1505 1532 1556 1578 1595 1604 1604 1593 1572 1545 1516 1479 1431 1389 1350 1353 1391 1437 1485 1473 1418 1382 1354 1333 1314 1299 1297 1293 1292 1292 1292 1293 1293 1295 1298 1323 1351 1365 1350 1319 1299 1301 1315 1338 1369 1406 1431 1456 1480 1506 1537 1566 1596 1633 1672 1707 1740 1775 1781 1767 1756 1756 1771 1795 1800 1799 1835 1882 1912 1948 1983 2018 2052 2088 2110 2114 2099 2074 2046 2017 1986 1956 1930 1906 1865 1811 1788 1738 1710 1722 1750 1753 1740 1718 1691 1668 1647 1627 1610 1602 1600 1588 1563 1534 1510 1500 1469 1422 1395 1380 1377 1388 1400 1438 1477 1497 1497 1528 1565 1592 1611 1638 1660 1684 1712 1769 1814 1849 1885 1928 1972 2001 2006 9999
1727 1706 1687 1661 1635 1617 1603 1580 1544 1511 1501 1511 1539 1545 1526 1500 1491 1483 1487 1497 1554 1614 1650 1686 1708 1724 1742 1762 1780 1798 1802 1809 1817 1824 1830 1834 1827 1823 1817 1829 1876 1889 1831 1799 1794 1774 1742 1725 1721 1721 1705 1703 1697 1690 1678 1661 1649 1634 1621 1612 1597 1577 1558 1542 1528 1506 1491 1478 1471 1484 1505 1538 1566 1590 1609 1623 1632 1627 1604 1578 1550 1522 1488 1427 1384 1355 1369 1401 1448 1487 1481 1443 1408 1383 1361 1341 1321 1303 1297 1295 1294 1293 1295 1297 1299 1328 1359 1383 1397 1387 1355 1317 1298 1304 1316 1355 1403 1428 1453 1478 1506 1542 1575 1605 1639 1672 1706 1745 1765 1761 1736 1724 1716 1748 1788 1799 1820 1852 1891 1926 1961 1996 2053 2076 2090 2105 2115 2100 2071 2041 2012 1976 1938 1908 1879 1833 1795 1791 1772 1761 1790 1805 1795 1771 1741 1702 1679 1655 1635 1616 1604 1600 1603 1568 1533 1507 1495 1468 1425 1396 1383 1380 1389 1400 1438 1476 1500 1521 1553 1588 1610 1632 1659 1683 1709 1751 1802 1837 1871 1907 1951 1997 2003 2008 9999
1697 1680 1658 1632 1608 1592 1578 1545 1515 1503 1513 1549 1577 1580 1552 1503 1490 1483 1488 1499 1561 1617 1657 1694 1705 1720 1738 1758 1778 1797 1803 1807 1808 1807 1804 1798 1792 1793 1796 1806 1857 1894 1865 1812 1787 1754 1717 1699 1692 1679 1666 1666 1664 1652 1638 1622 1610 1599 1582 1567 1545 1522 1512 1506 1508 1503 1495 1487 1490 1503 1539 1573 1602 1620 1641 1659 1658 1636 1606 1574 1539 1507 1465 1415 1380 1362 1384 1415 1447 1480 1480 1453 1431 1408 1386 1363 1343 1322 1300 1298 1297 1297 1298 1317 1349 1377 1403 1420 1430 1417 1397 1366 1338 1311 1308 1342 1393 1420 1446 1474 1506 1544 1581 1615 1645 1674 1704 1734 1744 1724 1706 1698 1702 1737 1782 1806 1838 1871 1904 1939 1975 2014 2086 2109 2101 2100 2109 2101 2076 2042 2007 1959 1913 1895 1860 1813 1791 1793 1797 1810 1831 1837 1822 1801 1761 1713 1684 1662 1640 1621 1605 1601 1591 1545 1511 1488 1467 1444 1416 1393 1383 1388 1396 1417 1462 1496 1523 1554 1586 1612 1633 1653 1679 1705 1741 1782 1821 1856 1891 1927 1970 2001 2006 2010 9999
1690 1668 1638 1610 1591 1570 1547 1517 1505 1512 1546 1585 1601 1600 1560 1499 1490 1483 1489 1499 1559 1616 1656 1694 1701 1710 1724 1742 1763 1780 1787 1793 1779 1765 1749 1745 1762 1780 1793 1798 1844 1891 1893 1855 1804 1769 1724 1705 1695 1663 1640 1628 1624 1619 1607 1596 1582 1565 1549 1538 1528 1527 1519 1520 1538 1527 1511 1499 1510 1545 1579 1606 1627 1651 1675 1679 1666 1629 1601 1561 1522 1486 1446 1407 1377 1376 1398 1434 1467 1486 1489 1477 1458 1434 1407 1383 1360 1338 1319 1315 1317 1317 1324 1374 1410 1437 1461 1468 1468 1445 1420 1400 1379 1346 1319 1317 1362 1404 1435 1468 1505 1547 1587 1618 1648 1677 1702 1721 1718 1699 1675 1686 1715 1751 1789 1820 1851 1882 1914 1946 1980 2020 2095 2110 2092 2078 2097 2100 2089 2047 2004 1947 1900 1897 1876 1841 1803 1846 1853 1863 1875 1867 1848 1821 1787 1734 1692 1667 1643 1622 1606 1599 1561 1505 1485 1467 1447 1425 1399 1388 1388 1398 1434 1472 1505 1526 1554 1584 1610 1632 1654 1675 1699 1731 1766 1806 1841 1876 1909 1939 1974 2001 2007 2010 9999
1687 1662 1632 1605 1586 1562 1536 1511 1509 1535 1577 1601 1608 1604 1571 1498 1489 1485 1492 1504 1564 1614 1651 1686 1700 1701 1710 1722 1737 1741 1737 1730 1716 1704 1700 1716 1749 1782 1799 1826 1866 1898 1897 1873 1829 1789 1759 1732 1705 1673 1629 1619 1614 1608 1599 1593 1589 1585 1584 1583 1583 1585 1575 1577 1578 1564 1546 1538 1556 1591 1616 1633 1654 1674 1690 1684 1656 1619 1587 1548 1507 1466 1424 1396 1382 1395 1428 1464 1495 1508 1510 1504 1484 1459 1430 1399 1375 1360 1351 1356 1368 1390 1418 1448 1477 1501 1509 1503 1493 1465 1432 1407 1400 1392 1356 1315 1335 1388 1426 1469 1513 1559 1601 1627 1652 1677 1699 1704 1690 1656 1650 1693 1727 1763 1797 1827 1856 1887 1920 1951 1982 2006 2046 2067 2052 2030 2046 2084 2098 2075 2003 1971 1928 1900 1898 1900 1905 1908 1909 1909 1908 1895 1869 1836 1801 1751 1705 1672 1643 1619 1603 1570 1523 1487 1466 1448 1428 1408 1394 1391 1398 1430 1473 1509 1534 1557 1584 1609 1631 1653 1674 1696 1720 1750 1783 1821 1859 1895 1921 1951 1980 2001 2006 2008 9999
1694 1673 1646 1619 1595 1568 1526 1510 1521 1560 1595 1605 1610 1607 1600 1497 1489 1488 1496 1521 1571 1612 1641 1671 1698 1700 1700 1705 1706 1698 1688 1676 1673 1685 1698 1724 1756 1788 1813 1836 1867 1896 1892 1864 1830 1799 1769 1739 1710 1677 1630 1619 1616 1625 1620 1619 1624 1625 1626 1625 1624 1623 1615 1614 1608 1598 1592 1589 1595 1618 1642 1663 1680 1693 1693 1674 1637 1603 1565 1526 1492 1452 1410 1398 1397 1427 1466 1500 1516 1530 1533 1526 1509 1480 1448 1419 1401 1391 1390 1405 1433 1463 1492 1508 1520 1535 1533 1518 1494 1468 1433 1408 1400 1400 1371 1319 1329 1381 1429 1482 1525 1566 1605 1624 1650 1673 1684 1682 1638 1624 1658 1705 1736 1766 1794 1820 1849 1879 1913 1949 1985 2003 2013 2019 2009 1998 1999 2025 2077 2085 2044 2015 1982 1938 1936 1928 1930 1936 1936 1938 1934 1917 1886 1850 1813 1771 1724 1681 1646 1613 1584 1549 1502 1477 1454 1433 1413 1397 1393 1399 1431 1466 1505 1532 1558 1584 1608 1629 1651 1673 1695 1717 1741 1767 1796 1838 1879 1908 1929 1956 1983 2000 2004 2006 9999
1713 1692 1666 1638 1606 1573 1534 1513 1536 1579 1606 1610 1611 1607 1601 1498 1493 1493 1499 1522 1558 1595 1623 1645 1664 1670 1673 1675 1674 1657 1637 1636 1656 1690 1713 1738 1767 1796 1826 1851 1871 1891 1882 1855 1825 1796 1763 1732 1704 1668 1638 1635 1654 1662 1665 1667 1668 1670 1669 1664 1661 1657 1647 1642 1631 1608 1600 1598 1614 1640 1665 1690 1701 1701 1693 1656 1618 1582 1540 1499 1464 1429 1401 1400 1422 1466 1503 1519 1535 1550 1557 1551 1532 1498 1470 1452 1446 1441 1449 1476 1500 1510 1519 1536 1561 1564 1546 1517 1478 1440 1411 1401 1384 1359 1330 1321 1348 1393 1441 1500 1541 1581 1600 1612 1631 1650 1660 1660 1627 1618 1662 1707 1733 1757 1780 1802 1827 1859 1905 1941 1975 2001 2010 2013 2006 1999 1991 1997 2020 2066 2074 2052 2016 1987 1970 1955 1953 1967 1967 1968 1959 1937 1905 1867 1830 1787 1736 1689 1652 1615 1576 1537 1497 1472 1447 1423 1400 1397 1399 1428 1463 1498 1524 1551 1579 1604 1626 1648 1670 1693 1710 1731 1756 1781 1811 1851 1894 1917 1938 1958 1979 1995 2001 2003 9999
1720 1702 1681 1645 1607 1566 1522 1519 1554 1596 1623 1632 1624 1612 1600 1499 1495 1497 1501 1509 1521 1558 1586 1608 1622 1633 1638 1642 1638 1625 1619 1631 1676 1706 1729 1753 1779 1807 1838 1866 1885 1890 1878 1855 1821 1789 1753 1717 1691 1671 1670 1683 1694 1703 1708 1709 1709 1710 1707 1701 1696 1691 1679 1667 1649 1625 1600 1606 1636 1662 1686 1704 1709 1705 1686 1638 1597 1559 1517 1478 1433 1404 1397 1418 1460 1502 1520 1537 1554 1572 1581 1583 1558 1516 1491 1486 1487 1492 1505 1513 1522 1532 1541 1558 1578 1571 1546 1511 1464 1413 1386 1359 1337 1327 1328 1346 1383 1418 1468 1514 1553 1594 1600 1604 1614 1629 1638 1638 1622 1624 1664 1695 1717 1738 1756 1771 1795 1830 1874 1927 1966 2001 2009 2012 2007 1999 1990 1993 1995 2015 2045 2056 2040 2011 1993 1976 1972 1988 1995 1995 1985 1962 1922 1880 1839 1799 1748 1697 1659 1621 1581 1532 1492 1464 1435 1410 1399 1399 1419 1450 1490 1517 1541 1567 1594 1618 1643 1665 1687 1700 1709 1735 1762 1789 1825 1863 1901 1922 1944 1963 1978 1984 1993 2000 9999
1723 1704 1678 1643 1608 1567 1521 1526 1570 1609 1647 1664 1654 1631 1604 1525 1498 1502 1513 1514 1510 1514 1530 1548 1577 1598 1604 1609 1610 1613 1628 1653 1694 1718 1740 1763 1789 1819 1852 1882 1901 1898 1885 1857 1822 1786 1743 1706 1698 1699 1716 1725 1731 1736 1741 1743 1742 1741 1733 1726 1718 1709 1700 1691 1674 1630 1604 1620 1658 1691 1706 1715 1715 1708 1682 1612 1570 1534 1495 1452 1411 1403 1420 1459 1496 1518 1537 1555 1572 1590 1600 1600 1580 1537 1499 1499 1500 1518 1528 1536 1543 1552 1560 1575 1584 1567 1535 1506 1453 1396 1360 1335 1332 1347 1374 1394 1409 1446 1489 1526 1563 1600 1600 1602 1606 1613 1619 1616 1606 1618 1647 1675 1696 1711 1716 1734 1767 1795 1807 1905 1940 2000 2008 2011 2007 1999 1995 1991 1975 1983 2008 2026 2033 2019 2000 1986 1980 1993 2001 2012 2005 1983 1936 1890 1852 1815 1769 1709 1668 1631 1595 1548 1505 1475 1442 1413 1396 1408 1435 1464 1497 1522 1548 1575 1600 1624 1650 1676 1699 1697 1699 1724 1756 1786 1824 1875 1904 1934 1960 1978 1984 1980 1980 1972 9999
1720 1701 1664 1631 1596 1548 1523 1549 1594 1631 1669 1691 1681 1644 1607 1538 1494 1504 1521 1536 1531 1524 1540 1560 1558 1568 1585 1598 1606 1622 1645 1671 1699 1723 1747 1770 1793 1826 1862 1894 1903 1903 1899 1858 1809 1794 1762 1726 1723 1742 1757 1766 1768 1771 1774 1776 1774 1768 1759 1748 1734 1718 1704 1700 1682 1624 1605 1639 1679 1706 1723 1727 1719 1704 1654 1584 1543 1507 1474 1429 1407 1418 1459 1493 1514 1533 1552 1571 1589 1600 1599 1600 1600 1558 1520 1510 1521 1541 1549 1559 1562 1571 1578 1588 1582 1559 1524 1494 1438 1392 1354 1334 1353 1391 1400 1402 1422 1466 1504 1538 1572 1600 1600 1600 1602 1603 1605 1599 1600 1602 1626 1648 1675 1696 1699 1711 1744 1776 1796 1842 1912 1992 2005 2010 2007 2001 1996 1971 1944 1946 1969 1995 2008 2007 2000 1989 1978 1985 2000 2011 2012 2000 1952 1899 1860 1821 1774 1720 1677 1642 1611 1573 1528 1487 1457 1427 1398 1404 1440 1479 1500 1523 1549 1574 1594 1613 1635 1663 1691 1699 1690 1714 1747 1777 1802 1858 1907 1944 1975 1994 1998 1986 1953 1931 9999
1712 1684 1643 1609 1575 1532 1533 1577 1615 1655 1693 1702 1694 1655 1610 1560 1512 1501 1515 1546 1565 1568 1598 1612 1609 1608 1609 1612 1616 1613 1621 1647 1692 1720 1746 1772 1798 1832 1866 1899 1906 1907 1901 1855 1800 1798 1788 1768 1777 1790 1801 1804 1804 1805 1805 1806 1802 1793 1780 1763 1743 1724 1709 1700 1660 1609 1607 1651 1697 1719 1736 1730 1712 1687 1611 1562 1520 1484 1446 1414 1415 1446 1488 1512 1531 1550 1570 1588 1601 1605 1607 1605 1601 1579 1551 1539 1549 1563 1571 1581 1589 1588 1595 1599 1588 1564 1534 1495 1440 1394 1362 1338 1345 1381 1400 1402 1430 1470 1507 1540 1573 1600 1600 1600 1600 1599 1591 1592 1599 1599 1603 1631 1671 1695 1700 1705 1734 1767 1794 1860 1923 1980 2003 2009 2008 2003 1985 1946 1912 1907 1922 1949 1971 1981 1978 1969 1963 1970 1983 1995 2001 1985 1952 1908 1866 1824 1778 1729 1689 1658 1628 1600 1553 1504 1476 1441 1405 1399 1428 1477 1503 1525 1549 1572 1591 1598 1610 1642 1674 1698 1699 1716 1749 1782 1799 1846 1901 1952 1989 2006 2010 1992 1908 1900 9999
1700 1659 1619 1586 1545 1533 1564 1602 1638 1676 1711 1720 1700 1655 1612 1571 1529 1501 1503 1535 1576 1602 1622 1642 1655 1657 1654 1659 1656 1636 1625 1641 1684 1714 1742 1770 1798 1831 1864 1897 1909 1912 1903 1863 1802 1799 1800 1806 1816 1823 1829 1827 1833 1836 1833 1829 1825 1809 1792 1772 1749 1727 1709 1691 1635 1605 1624 1679 1712 1739 1741 1722 1701 1644 1584 1540 1497 1463 1427 1417 1440 1480 1507 1526 1545 1566 1587 1605 1615 1620 1622 1620 1614 1596 1580 1574 1576 1588 1596 1604 1617 1616 1623 1621 1612 1597 1559 1511 1460 1417 1384 1353 1340 1358 1384 1399 1423 1459 1502 1534 1565 1589 1600 1600 1593 1575 1556 1573 1589 1599 1602 1640 1681 1700 1715 1729 1748 1777 1811 1889 1932 1974 2001 2007 2008 2002 1983 1935 1899 1899 1897 1902 1921 1935 1941 1940 1943 1951 1961 1971 1977 1965 1937 1906 1867 1821 1781 1739 1703 1674 1645 1616 1583 1535 1492 1455 1415 1401 1417 1464 1502 1523 1545 1567 1586 1599 1605 1640 1678 1697 1711 1742 1774 1798 1812 1847 1897 1962 2003 2021 2024 2006 1930 1900 9999
1666 1628 1594 1558 1539 1555 1594 1629 1666 1702 1740 1737 1693 1652 1613 1574 1532 1505 1505 1537 1579 1611 1642 1666 1685 1699 1699 1701 1693 1677 1661 1654 1679 1708 1736 1765 1794 1827 1862 1896 1909 1915 1906 1895 1851 1839 1841 1845 1850 1852 1853 1854 1862 1867 1862 1851 1837 1816 1797 1772 1746 1721 1704 1673 1621 1610 1655 1702 1737 1751 1735 1707 1666 1611 1559 1508 1479 1447 1424 1433 1471 1503 1522 1540 1559 1578 1600 1619 1632 1640 1644 1642 1630 1608 1596 1597 1597 1613 1626 1635 1648 1651 1655 1650 1639 1618 1590 1534 1490 1449 1408 1379 1354 1344 1351 1376 1399 1437 1492 1525 1551 1568 1570 1558 1548 1529 1517 1540 1572 1595 1631 1680 1702 1715 1731 1749 1770 1793 1840 1901 1935 1971 2000 2005 2007 2003 1993 1947 1903 1891 1878 1868 1877 1892 1905 1912 1920 1928 1935 1942 1947 1938 1920 1901 1857 1805 1769 1735 1704 1684 1656 1629 1606 1567 1518 1478 1431 1402 1409 1452 1496 1520 1544 1566 1586 1604 1625 1654 1689 1713 1742 1778 1805 1821 1844 1872 1912 1982 2014 2035 2038 2017 1978 1900 9999
1632 1596 1567 1546 1554 1587 1620 1656 1693 1734 1768 1744 1695 1653 1614 1578 1537 1503 1505 1536 1579 1613 1648 1681 1700 1702 1710 1719 1718 1712 1700 1686 1691 1702 1727 1757 1787 1820 1853 1888 1907 1916 1909 1900 1899 1891 1888 1889 1884 1880 1876 1878 1882 1879 1871 1852 1830 1807 1785 1761 1734 1710 1683 1640 1613 1626 1674 1718 1755 1748 1714 1683 1637 1586 1535 1490 1459 1438 1433 1446 1481 1508 1532 1553 1573 1593 1612 1631 1651 1662 1668 1666 1649 1622 1600 1599 1613 1639 1655 1667 1680 1685 1684 1679 1659 1632 1603 1557 1519 1484 1443 1412 1393 1368 1350 1354 1381 1419 1479 1512 1532 1541 1534 1512 1499 1499 1501 1541 1588 1622 1662 1704 1719 1729 1743 1762 1781 1808 1864 1908 1936 1967 1996 2003 2005 2003 2000 1958 1913 1876 1837 1818 1833 1847 1860 1878 1896 1903 1907 1913 1917 1910 1901 1868 1815 1776 1735 1714 1695 1676 1651 1628 1609 1592 1540 1493 1451 1411 1403 1435 1487 1518 1544 1570 1594 1621 1649 1675 1705 1740 1771 1803 1824 1843 1863 1892 1947 2002 2026 2050 2053 2031 2000 1918 9999
1602 1570 1554 1559 1587 1615 1647 1683 1722 1769 1782 1737 1690 1653 1615 1580 1537 1505 1505 1536 1579 1613 1648 1685 1701 1711 1723 1737 1745 1743 1732 1714 1705 1702 1714 1744 1779 1812 1848 1885 1906 1916 1913 1909 1907 1905 1904 1904 1903 1897 1892 1888 1883 1874 1861 1834 1814 1792 1766 1741 1717 1691 1653 1623 1621 1655 1697 1748 1761 1725 1687 1642 1603 1562 1510 1479 1452 1445 1455 1469 1492 1499 1525 1556 1584 1608 1628 1646 1666 1682 1691 1686 1674 1656 1629 1617 1630 1660 1682 1697 1707 1713 1708 1698 1671 1636 1602 1566 1537 1511 1481 1447 1419 1395 1368 1352 1365 1394 1437 1483 1508 1513 1499 1471 1464 1491 1526 1573 1614 1653 1691 1712 1727 1743 1757 1771 1790 1824 1878 1915 1940 1964 1987 2000 2003 2003 2000 1970 1923 1879 1826 1798 1797 1799 1812 1830 1847 1859 1868 1877 1885 1880 1867 1841 1804 1759 1712 1696 1673 1650 1634 1616 1604 1599 1563 1516 1480 1429 1403 1423 1475 1512 1545 1575 1604 1634 1665 1692 1723 1758 1792 1816 1836 1856 1877 1902 1969 2012 2042 2063 2063 2040 2006 1937 9999
1578 1563 1574 1591 1616 1642 1674 1719 1765 1794 1785 1728 1684 1649 1614 1580 1538 1507 1506 1535 1578 1612 1648 1685 1705 1720 1737 1754 1768 1774 1767 1750 1737 1724 1713 1723 1757 1797 1837 1878 1904 1913 1914 1916 1917 1914 1913 1910 1908 1903 1895 1881 1866 1851 1835 1813 1796 1772 1745 1719 1694 1660 1632 1629 1653 1688 1723 1769 1739 1689 1640 1598 1564 1527 1493 1466 1458 1471 1486 1495 1500 1511 1536 1568 1599 1623 1646 1664 1682 1699 1701 1702 1701 1690 1665 1651 1660 1682 1705 1722 1736 1738 1724 1703 1667 1626 1596 1572 1547 1524 1500 1467 1440 1415 1393 1365 1356 1373 1397 1436 1463 1468 1439 1435 1471 1512 1560 1603 1634 1672 1705 1720 1735 1751 1767 1783 1798 1835 1879 1913 1936 1956 1974 1990 2000 2001 2000 1974 1929 1888 1837 1798 1775 1760 1765 1784 1800 1815 1824 1834 1848 1851 1842 1821 1801 1760 1709 1677 1645 1620 1605 1603 1600 1600 1580 1536 1494 1443 1404 1416 1471 1513 1548 1583 1614 1643 1674 1704 1738 1771 1803 1823 1842 1862 1882 1914 1983 2023 2056 2075 2070 2044 2012 1948 9999
1572 1588 1609 1627 1651 1675 1700 1792 1800 1801 1774 1724 1681 1647 1614 1582 1540 1509 1506 1530 1570 1602 1641 1680 1708 1727 1747 1767 1784 1798 1799 1786 1775 1758 1733 1726 1748 1785 1820 1864 1901 1910 1919 1924 1924 1921 1918 1916 1912 1907 1900 1874 1848 1827 1809 1792 1770 1747 1721 1696 1664 1641 1643 1664 1691 1719 1765 1772 1727 1666 1599 1569 1537 1503 1486 1473 1482 1499 1519 1532 1538 1544 1563 1585 1610 1637 1662 1684 1700 1703 1706 1708 1707 1703 1695 1684 1688 1696 1721 1752 1761 1747 1720 1693 1644 1603 1590 1575 1555 1532 1508 1481 1456 1432 1409 1384 1360 1365 1384 1400 1407 1406 1415 1452 1502 1545 1591 1623 1651 1681 1707 1725 1742 1758 1774 1791 1815 1848 1883 1910 1927 1943 1957 1968 1983 1994 1996 1975 1936 1899 1857 1819 1791 1755 1730 1730 1749 1777 1783 1798 1814 1823 1820 1806 1800 1766 1724 1685 1638 1599 1600 1599 1593 1580 1571 1532 1495 1443 1405 1424 1480 1521 1559 1595 1623 1651 1679 1709 1743 1777 1806 1825 1845 1865 1885 1923 1997 2036 2068 2081 2075 2045 2011 1951 9999
1595 1618 1649 1673 1693 1717 1777 1800 1800 1790 1756 1717 1683 1649 1616 1584 1544 1512 1507 1527 1568 1601 1637 1672 1704 1726 1750 1774 1794 1808 1817 1813 1805 1791 1772 1758 1757 1776 1798 1846 1900 1914 1925 1928 1926 1921 1918 1914 1910 1905 1891 1860 1833 1810 1788 1766 1744 1722 1697 1670 1653 1658 1682 1702 1720 1744 1778 1765 1714 1655 1592 1558 1524 1498 1488 1489 1503 1534 1561 1576 1578 1583 1592 1598 1619 1648 1676 1701 1705 1709 1713 1716 1715 1709 1703 1699 1699 1703 1738 1773 1771 1747 1712 1673 1614 1594 1596 1584 1566 1542 1516 1487 1463 1440 1418 1395 1371 1361 1372 1391 1403 1416 1441 1492 1532 1573 1609 1636 1665 1695 1713 1730 1749 1766 1781 1797 1818 1847 1879 1901 1913 1927 1938 1943 1952 1960 1975 1987 1964 1917 1877 1841 1815 1789 1739 1712 1715 1732 1745 1761 1778 1792 1801 1800 1792 1764 1728 1702 1658 1616 1599 1597 1584 1564 1543 1516 1479 1426 1406 1435 1489 1530 1570 1606 1632 1658 1685 1715 1748 1782 1809 1829 1849 1869 1888 1933 2006 2050 2086 2081 2070 2040 2007 1948 9999
1631 1658 1686 1707 1723 1757 1804 1800 1790 1774 1739 1702 1672 1643 1614 1585 1548 1514 1510 1539 1569 1597 1631 1665 1700 1721 1743 1765 1788 1812 1834 1840 1831 1817 1806 1796 1786 1788 1803 1849 1898 1920 1930 1927 1921 1914 1914 1909 1904 1900 1870 1833 1810 1791 1768 1742 1720 1699 1678 1668 1677 1695 1710 1728 1748 1770 1784 1759 1707 1649 1592 1556 1519 1495 1498 1508 1537 1571 1600 1600 1600 1598 1598 1598 1624 1655 1686 1705 1713 1717 1722 1724 1723 1716 1708 1702 1697 1704 1742 1776 1770 1732 1701 1657 1608 1591 1597 1598 1577 1551 1510 1481 1459 1437 1417 1396 1377 1364 1368 1385 1402 1439 1481 1520 1558 1597 1621 1645 1671 1700 1716 1734 1752 1769 1785 1800 1811 1836 1863 1884 1899 1909 1916 1916 1918 1921 1947 1981 1981 1937 1894 1863 1839 1813 1782 1736 1710 1701 1706 1721 1736 1745 1759 1772 1766 1745 1719 1703 1677 1639 1605 1594 1575 1552 1528 1503 1464 1419 1408 1439 1489 1532 1576 1611 1638 1664 1690 1719 1750 1782 1809 1829 1849 1870 1889 1938 2019 2092 2085 2071 2053 2031 2003 1941 9999
1680 1701 1715 1733 1756 1787 1790 1781 1767 1750 1724 1691 1658 1632 1608 1583 1547 1517 1510 1524 1560 1590 1618 1653 1692 1718 1740 1763 1787 1811 1840 1863 1864 1853 1835 1828 1820 1823 1878 1902 1900 1917 1929 1918 1911 1907 1906 1902 1893 1864 1834 1801 1783 1766 1742 1720 1699 1691 1688 1697 1707 1719 1733 1753 1773 1789 1770 1737 1699 1642 1590 1548 1510 1501 1520 1543 1570 1599 1603 1604 1604 1602 1596 1595 1623 1656 1689 1710 1723 1727 1729 1729 1726 1720 1710 1702 1697 1703 1737 1767 1756 1717 1682 1645 1613 1613 1602 1603 1585 1546 1499 1468 1443 1426 1406 1393 1380 1367 1370 1386 1402 1444 1487 1527 1567 1604 1627 1651 1674 1699 1714 1729 1745 1762 1777 1790 1801 1816 1832 1848 1861 1875 1881 1882 1881 1887 1906 1946 1971 1950 1911 1884 1857 1832 1808 1777 1732 1702 1692 1685 1691 1704 1722 1734 1734 1720 1708 1700 1686 1653 1621 1592 1569 1544 1518 1490 1444 1411 1413 1444 1489 1529 1575 1613 1641 1669 1696 1725 1757 1787 1811 1832 1850 1868 1885 1919 2016 2092 2081 2059 2036 2017 1991 1930 9999
1714 1727 1745 1763 1777 1783 1775 1759 1742 1723 1701 1668 1639 1611 1583 1562 1536 1516 1512 1521 1548 1579 1606 1646 1681 1709 1732 1757 1782 1807 1841 1870 1879 1877 1864 1859 1863 1873 1908 1905 1900 1932 1928 1906 1901 1901 1895 1873 1850 1823 1797 1777 1751 1734 1719 1706 1699 1701 1709 1720 1730 1749 1768 1774 1791 1780 1754 1720 1679 1627 1583 1533 1505 1513 1548 1578 1602 1609 1613 1616 1617 1616 1603 1599 1608 1649 1694 1713 1731 1737 1736 1731 1724 1716 1706 1701 1698 1702 1725 1746 1734 1710 1684 1659 1645 1625 1611 1601 1594 1540 1485 1452 1423 1400 1396 1388 1375 1370 1375 1389 1405 1444 1481 1520 1562 1601 1626 1650 1673 1698 1709 1721 1735 1750 1764 1772 1779 1787 1796 1809 1818 1827 1833 1838 1839 1855 1883 1915 1947 1948 1924 1900 1876 1852 1827 1805 1769 1732 1697 1665 1647 1662 1685 1700 1708 1703 1700 1699 1687 1657 1626 1595 1565 1535 1506 1471 1425 1411 1432 1457 1493 1529 1574 1609 1638 1668 1696 1726 1757 1788 1811 1828 1846 1864 1882 1902 2003 2075 2071 2052 2030 2009 1972 1917 9999
1745 1759 1773 1779 1779 1774 1757 1735 1718 1700 1666 1624 1600 1587 1567 1549 1530 1516 1512 1521 1548 1579 1606 1638 1668 1702 1726 1751 1774 1801 1833 1864 1880 1887 1885 1885 1899 1906 1909 1912 1928 1936 1903 1898 1892 1873 1847 1823 1800 1791 1773 1748 1724 1712 1709 1713 1713 1723 1730 1742 1753 1772 1788 1795 1791 1766 1737 1707 1660 1607 1569 1526 1510 1529 1575 1603 1615 1624 1630 1634 1636 1634 1621 1609 1622 1658 1700 1718 1736 1742 1738 1723 1711 1700 1701 1699 1699 1701 1713 1723 1714 1702 1693 1675 1655 1636 1620 1607 1600 1515 1478 1435 1398 1393 1388 1382 1375 1373 1376 1388 1398 1429 1466 1506 1547 1589 1620 1648 1677 1700 1703 1712 1723 1736 1747 1750 1754 1757 1761 1769 1773 1779 1786 1795 1804 1831 1864 1892 1914 1924 1919 1903 1890 1870 1847 1824 1801 1764 1725 1689 1644 1623 1628 1645 1672 1695 1700 1702 1675 1651 1627 1603 1566 1525 1489 1444 1415 1423 1461 1489 1508 1542 1579 1601 1629 1658 1688 1719 1749 1780 1806 1826 1845 1865 1883 1904 2002 2038 2044 2035 2018 2003 1957 1900 9999
1768 1778 1779 1777 1766 1747 1727 1710 1696 1672 1635 1602 1599 1595 1585 1563 1539 1521 1516 1520 1540 1565 1595 1625 1659 1693 1716 1738 1766 1794 1823 1846 1866 1881 1892 1902 1928 1942 1948 1949 1957 1938 1899 1887 1868 1844 1809 1794 1782 1769 1747 1730 1718 1713 1720 1734 1738 1747 1753 1763 1774 1789 1797 1795 1787 1759 1724 1693 1641 1592 1551 1522 1521 1551 1591 1613 1628 1641 1648 1653 1656 1655 1647 1636 1650 1673 1703 1725 1744 1746 1735 1713 1699 1695 1687 1689 1697 1699 1703 1706 1702 1701 1693 1678 1661 1643 1626 1611 1600 1520 1492 1443 1398 1391 1385 1383 1379 1376 1377 1385 1394 1407 1447 1488 1529 1570 1607 1635 1666 1696 1700 1704 1712 1721 1724 1725 1728 1728 1725 1728 1729 1730 1729 1746 1779 1812 1843 1871 1890 1897 1898 1897 1896 1887 1871 1850 1822 1796 1758 1720 1682 1631 1609 1610 1621 1642 1662 1664 1654 1631 1614 1586 1547 1505 1464 1422 1418 1455 1493 1520 1542 1569 1594 1599 1618 1650 1681 1712 1742 1773 1802 1823 1843 1864 1885 1922 1994 2005 2015 2014 2006 1977 1930 1900 9999
1782 1782 1771 1754 1735 1717 1702 1686 1666 1650 1628 1614 1613 1600 1600 1583 1555 1529 1523 1520 1525 1544 1578 1606 1639 1671 1703 1730 1759 1788 1812 1832 1851 1869 1886 1905 1977 1988 1987 1991 1985 1938 1898 1880 1856 1829 1803 1789 1776 1759 1743 1733 1732 1739 1746 1762 1768 1775 1777 1782 1790 1795 1794 1786 1772 1745 1713 1670 1613 1575 1541 1534 1544 1572 1597 1618 1639 1653 1665 1672 1677 1677 1675 1673 1681 1692 1707 1732 1751 1750 1731 1708 1694 1680 1667 1666 1675 1683 1687 1691 1691 1686 1686 1675 1661 1645 1629 1614 1601 1556 1518 1476 1423 1398 1393 1390 1387 1383 1379 1381 1388 1398 1431 1471 1510 1548 1585 1617 1647 1675 1694 1700 1701 1706 1702 1701 1701 1699 1689 1687 1689 1697 1699 1721 1760 1799 1826 1855 1869 1874 1878 1879 1883 1887 1883 1872 1845 1816 1790 1754 1714 1675 1634 1614 1598 1600 1604 1612 1616 1606 1583 1555 1523 1486 1440 1419 1438 1484 1519 1550 1575 1595 1599 1600 1608 1640 1675 1698 1729 1755 1785 1810 1832 1854 1877 1904 1967 1999 1998 1999 1984 1946 1908 1900 9999
1784 1767 1747 1724 1708 1694 1676 1663 1656 1652 1653 1651 1630 1607 1600 1582 1548 1535 1545 1533 1524 1532 1559 1590 1622 1657 1695 1725 1753 1782 1806 1824 1843 1861 1880 1899 2009 2018 2009 2004 1991 1957 1911 1888 1865 1838 1814 1797 1782 1765 1753 1756 1764 1777 1785 1788 1794 1800 1799 1798 1799 1793 1783 1768 1751 1731 1703 1650 1596 1566 1561 1569 1581 1595 1599 1626 1647 1665 1678 1690 1696 1699 1696 1696 1691 1694 1714 1745 1758 1749 1725 1702 1680 1660 1644 1641 1653 1662 1670 1676 1677 1673 1670 1666 1655 1643 1629 1614 1602 1573 1540 1508 1469 1433 1411 1399 1396 1392 1386 1383 1385 1396 1408 1446 1486 1523 1560 1593 1620 1642 1656 1659 1659 1669 1660 1652 1650 1650 1645 1651 1666 1683 1696 1712 1758 1800 1816 1836 1846 1850 1855 1858 1859 1870 1876 1872 1857 1834 1811 1788 1747 1707 1677 1640 1606 1599 1594 1579 1573 1557 1533 1507 1486 1457 1425 1424 1462 1503 1540 1576 1600 1602 1610 1619 1630 1659 1685 1699 1705 1730 1766 1796 1819 1843 1869 1896 1940 1963 1986 1992 1969 1930 1900 1906 9999
1775 1745 1718 1700 1688 1677 1676 1683 1684 1686 1687 1675 1645 1613 1599 1577 1548 1551 1574 1564 1547 1528 1539 1575 1607 1642 1681 1714 1742 1770 1799 1817 1835 1855 1873 1889 1899 1948 1959 1968 1975 1998 1971 1907 1883 1859 1838 1811 1790 1776 1775 1785 1794 1804 1811 1814 1819 1822 1823 1813 1799 1786 1770 1752 1734 1715 1688 1636 1598 1584 1594 1605 1605 1599 1610 1634 1659 1679 1692 1701 1703 1704 1702 1699 1691 1695 1714 1751 1763 1743 1714 1692 1666 1638 1621 1617 1635 1645 1653 1661 1662 1660 1654 1653 1643 1635 1623 1611 1600 1574 1548 1521 1493 1455 1428 1412 1405 1401 1396 1389 1387 1390 1397 1425 1464 1499 1535 1567 1587 1602 1609 1607 1613 1618 1613 1602 1600 1604 1611 1626 1647 1669 1688 1711 1756 1797 1806 1817 1823 1826 1830 1834 1835 1842 1852 1848 1845 1835 1819 1802 1768 1731 1697 1661 1625 1600 1581 1555 1532 1512 1490 1468 1443 1427 1427 1441 1481 1513 1550 1589 1601 1611 1631 1654 1668 1687 1696 1699 1700 1726 1762 1792 1800 1822 1854 1886 1916 1949 1981 1994 1976 1941 1923 1938 9999
1766 1732 1704 1699 1696 1699 1705 1714 1716 1716 1707 1690 1655 1618 1592 1566 1560 1580 1598 1594 1576 1543 1533 1550 1588 1621 1660 1699 1726 1754 1785 1810 1828 1845 1861 1873 1883 1890 1895 1898 1903 1946 1994 1973 1909 1880 1851 1822 1799 1793 1797 1807 1815 1824 1832 1843 1854 1853 1845 1828 1803 1784 1763 1742 1723 1704 1662 1610 1600 1600 1616 1628 1627 1620 1627 1645 1671 1693 1706 1712 1715 1716 1714 1711 1695 1703 1732 1767 1759 1727 1701 1677 1652 1625 1603 1599 1617 1628 1637 1646 1647 1646 1641 1635 1630 1623 1615 1605 1588 1565 1542 1518 1493 1466 1440 1422 1416 1413 1403 1389 1370 1389 1396 1406 1442 1477 1511 1536 1554 1564 1568 1569 1575 1576 1575 1582 1589 1597 1605 1626 1644 1662 1681 1701 1736 1767 1789 1797 1801 1803 1807 1811 1813 1814 1815 1815 1813 1811 1804 1794 1769 1739 1708 1675 1640 1605 1572 1535 1504 1482 1458 1435 1431 1440 1460 1479 1498 1508 1537 1581 1605 1624 1650 1678 1700 1700 1703 1708 1718 1746 1779 1797 1799 1820 1851 1882 1896 1943 1982 2001 1989 1966 1959 1973 9999
1773 1739 1717 1720 1730 1736 1741 1753 1759 1748 1724 1692 1651 1611 1584 1569 1583 1608 1631 1628 1603 1576 1542 1538 1565 1598 1635 1674 1709 1738 1770 1801 1817 1832 1847 1858 1866 1871 1875 1878 1884 1897 1937 1993 1949 1896 1868 1840 1822 1817 1825 1831 1837 1845 1852 1863 1869 1866 1851 1826 1803 1778 1756 1734 1714 1688 1640 1599 1602 1619 1639 1651 1650 1645 1650 1663 1683 1704 1717 1724 1729 1731 1729 1726 1714 1734 1771 1773 1745 1708 1681 1658 1636 1611 1592 1592 1600 1611 1623 1631 1633 1632 1627 1622 1616 1610 1603 1592 1573 1553 1531 1508 1486 1462 1439 1423 1418 1416 1404 1397 1393 1392 1393 1397 1420 1455 1485 1504 1519 1526 1527 1533 1536 1539 1548 1562 1575 1587 1601 1619 1637 1655 1675 1694 1723 1749 1768 1777 1777 1774 1778 1784 1787 1787 1786 1785 1783 1783 1780 1768 1752 1728 1707 1678 1644 1610 1564 1522 1489 1456 1438 1437 1456 1486 1502 1518 1520 1509 1513 1559 1605 1627 1656 1685 1699 1705 1721 1745 1763 1788 1798 1811 1829 1843 1864 1886 1899 1934 1983 2006 2000 1988 1992 2000 9999
1788 1765 1754 1764 1774 1775 1777 1783 1778 1755 1719 1680 1633 1597 1582 1587 1608 1645 1670 1664 1637 1600 1571 1543 1547 1580 1611 1649 1688 1720 1751 1781 1806 1821 1834 1843 1848 1851 1855 1856 1868 1887 1916 1984 1978 1916 1883 1864 1851 1853 1853 1857 1860 1865 1871 1878 1877 1868 1851 1819 1796 1769 1744 1721 1701 1664 1618 1602 1619 1643 1663 1674 1674 1669 1673 1681 1694 1711 1725 1737 1743 1748 1747 1744 1738 1762 1780 1757 1717 1687 1659 1635 1617 1599 1594 1592 1593 1597 1610 1617 1618 1617 1614 1609 1603 1596 1584 1570 1554 1537 1518 1496 1471 1451 1431 1415 1407 1403 1398 1394 1387 1383 1379 1389 1399 1427 1456 1477 1489 1489 1489 1496 1501 1510 1530 1548 1565 1582 1596 1608 1628 1653 1681 1701 1710 1736 1748 1747 1745 1743 1745 1752 1756 1758 1758 1757 1752 1753 1746 1736 1723 1708 1685 1660 1630 1603 1555 1501 1472 1444 1441 1464 1491 1518 1546 1567 1578 1566 1532 1534 1582 1616 1645 1674 1699 1716 1744 1775 1801 1810 1828 1846 1867 1885 1892 1904 1922 1953 1990 2002 2003 2001 2000 2005 9999
1799 1792 1796 1803 1808 1804 1798 1790 1768 1735 1702 1655 1607 1598 1594 1616 1657 1691 1700 1699 1671 1630 1596 1567 1546 1560 1590 1620 1659 1701 1731 1762 1793 1809 1819 1827 1828 1832 1835 1835 1853 1877 1909 1969 1985 1938 1899 1888 1882 1887 1882 1884 1884 1883 1885 1883 1875 1860 1841 1812 1785 1759 1732 1707 1676 1633 1608 1611 1641 1669 1688 1698 1697 1689 1690 1694 1700 1717 1733 1747 1757 1764 1765 1763 1761 1778 1759 1719 1692 1666 1635 1611 1598 1594 1584 1578 1576 1577 1593 1602 1604 1604 1601 1593 1583 1573 1562 1546 1531 1516 1498 1473 1449 1432 1416 1402 1397 1393 1389 1385 1382 1379 1379 1385 1395 1411 1437 1452 1460 1442 1449 1467 1488 1507 1526 1546 1565 1583 1596 1599 1633 1682 1713 1709 1705 1725 1729 1715 1712 1712 1713 1719 1724 1728 1730 1728 1722 1722 1712 1702 1693 1677 1657 1633 1608 1573 1529 1489 1457 1444 1459 1488 1516 1551 1583 1609 1622 1616 1592 1564 1567 1599 1623 1647 1682 1711 1749 1788 1801 1817 1847 1876 1897 1915 1924 1938 1949 1967 1999 2004 2007 2006 2007 2009 9999
1825 1827 1830 1835 1829 1815 1799 1772 1740 1708 1676 1631 1599 1599 1622 1662 1699 1701 1700 1700 1694 1657 1623 1591 1561 1552 1569 1594 1628 1672 1712 1742 1769 1790 1804 1809 1809 1812 1813 1818 1841 1872 1901 1949 1981 1970 1929 1913 1908 1911 1906 1906 1902 1898 1892 1881 1866 1846 1825 1807 1781 1749 1720 1691 1650 1619 1617 1639 1670 1695 1702 1705 1705 1702 1694 1691 1703 1724 1741 1756 1768 1777 1783 1782 1781 1773 1738 1695 1682 1651 1618 1597 1592 1590 1574 1557 1551 1549 1566 1575 1584 1587 1581 1574 1562 1551 1540 1524 1507 1489 1465 1440 1422 1406 1398 1393 1390 1387 1387 1387 1385 1381 1379 1382 1392 1399 1418 1427 1426 1417 1439 1473 1499 1512 1530 1550 1570 1586 1597 1600 1632 1705 1723 1707 1713 1730 1707 1700 1700 1697 1688 1687 1691 1698 1701 1699 1689 1688 1681 1666 1656 1638 1619 1603 1567 1532 1502 1477 1450 1451 1477 1505 1541 1578 1615 1648 1661 1659 1641 1613 1597 1600 1599 1618 1655 1693 1733 1777 1800 1817 1852 1886 1909 1934 1956 1971 1979 1985 1998 2003 2009 2011 2013 2011 9999
1869 1867 1865 1855 1833 1808 1778 1744 1711 1688 1662 1633 1603 1619 1668 1702 1707 1707 1706 1703 1701 1680 1645 1610 1584 1560 1558 1576 1597 1638 1684 1717 1743 1767 1782 1789 1788 1793 1799 1806 1832 1863 1890 1916 1959 1975 1970 1956 1939 1937 1929 1924 1915 1904 1894 1876 1856 1835 1814 1795 1766 1735 1705 1671 1634 1626 1649 1681 1703 1712 1716 1719 1719 1714 1701 1692 1700 1723 1747 1764 1779 1790 1798 1802 1799 1779 1742 1705 1687 1654 1611 1591 1590 1589 1570 1544 1527 1520 1536 1545 1555 1561 1559 1554 1544 1530 1518 1504 1477 1451 1430 1406 1397 1393 1390 1388 1390 1393 1396 1397 1395 1390 1384 1381 1386 1393 1399 1404 1407 1415 1463 1498 1513 1528 1541 1559 1576 1591 1599 1608 1639 1689 1702 1720 1741 1746 1720 1700 1698 1689 1663 1648 1651 1659 1661 1660 1652 1648 1646 1634 1621 1604 1581 1554 1517 1495 1484 1463 1452 1465 1493 1526 1562 1598 1646 1688 1700 1702 1693 1671 1646 1622 1611 1605 1616 1660 1703 1743 1781 1809 1839 1875 1901 1924 1956 1973 1982 1986 1993 2001 2006 2010 2012 2009 9999
1890 1882 1867 1847 1820 1793 1751 1714 1690 1668 1653 1650 1661 1681 1704 1713 1718 1718 1716 1712 1708 1701 1668 1634 1603 1583 1564 1566 1583 1600 1645 1694 1724 1745 1758 1764 1765 1777 1791 1809 1835 1859 1879 1894 1914 1940 1961 1964 1960 1951 1945 1936 1925 1910 1896 1874 1851 1829 1808 1780 1748 1718 1690 1653 1639 1656 1686 1706 1719 1728 1732 1735 1735 1731 1713 1701 1712 1733 1753 1773 1790 1803 1821 1830 1826 1810 1778 1737 1702 1676 1636 1599 1595 1591 1571 1542 1516 1502 1507 1516 1527 1535 1536 1533 1526 1511 1495 1469 1438 1408 1398 1395 1392 1391 1392 1396 1398 1408 1422 1431 1417 1398 1392 1383 1382 1385 1392 1398 1396 1434 1493 1512 1527 1542 1557 1572 1587 1598 1614 1635 1665 1692 1721 1756 1777 1770 1740 1713 1698 1676 1638 1610 1611 1621 1621 1620 1615 1607 1607 1600 1589 1574 1549 1518 1493 1478 1465 1457 1460 1479 1501 1542 1583 1618 1659 1701 1720 1728 1723 1713 1703 1678 1656 1624 1605 1620 1667 1711 1751 1781 1812 1847 1874 1901 1927 1946 1952 1957 1971 1987 2001 2004 2006 2005 9999
1882 1871 1842 1818 1795 1757 1713 1691 1671 1657 1656 1670 1689 1706 1717 1726 1730 1731 1729 1724 1719 1710 1690 1657 1626 1599 1581 1569 1574 1590 1607 1659 1704 1723 1735 1737 1744 1760 1784 1809 1830 1849 1865 1879 1889 1898 1917 1939 1943 1946 1942 1937 1927 1913 1896 1870 1844 1820 1798 1767 1734 1702 1674 1656 1663 1690 1710 1724 1736 1746 1750 1752 1753 1749 1729 1724 1729 1748 1771 1790 1808 1828 1848 1858 1853 1833 1807 1766 1733 1709 1674 1634 1611 1596 1580 1551 1520 1498 1494 1493 1502 1511 1513 1513 1507 1489 1457 1429 1404 1394 1390 1395 1397 1399 1412 1432 1448 1457 1465 1472 1458 1424 1396 1387 1382 1384 1391 1398 1405 1472 1509 1524 1539 1555 1571 1586 1600 1618 1636 1659 1685 1713 1746 1782 1800 1791 1766 1739 1712 1685 1634 1597 1597 1590 1586 1583 1580 1574 1573 1567 1559 1544 1522 1497 1482 1468 1463 1467 1480 1495 1518 1550 1592 1626 1662 1699 1724 1747 1752 1749 1734 1715 1700 1670 1631 1612 1626 1683 1720 1748 1783 1817 1844 1873 1894 1905 1916 1928 1945 1961 1977 1993 1998 1994 9999
1850 1839 1814 1788 1752 1711 1690 1673 1660 1659 1674 1692 1706 1719 1731 1739 1745 1746 1743 1739 1732 1721 1702 1674 1646 1619 1596 1580 1575 1582 1595 1615 1664 1701 1713 1713 1725 1747 1776 1802 1820 1836 1849 1861 1871 1880 1891 1906 1916 1921 1925 1927 1924 1909 1890 1864 1837 1810 1783 1753 1722 1695 1678 1678 1693 1711 1731 1744 1754 1763 1769 1770 1771 1767 1757 1753 1753 1767 1787 1811 1836 1856 1876 1887 1880 1857 1823 1787 1756 1730 1705 1672 1644 1621 1600 1572 1542 1511 1488 1471 1476 1488 1498 1489 1471 1448 1414 1400 1394 1399 1407 1423 1440 1459 1479 1498 1508 1508 1510 1510 1493 1452 1404 1391 1382 1385 1392 1398 1433 1501 1516 1532 1548 1565 1581 1597 1615 1633 1652 1671 1693 1725 1760 1794 1802 1803 1793 1767 1739 1712 1675 1624 1598 1580 1564 1551 1544 1537 1533 1532 1527 1518 1504 1489 1475 1470 1476 1487 1497 1521 1542 1569 1592 1616 1651 1683 1713 1742 1769 1777 1772 1752 1729 1709 1683 1650 1623 1645 1683 1712 1748 1784 1815 1841 1860 1874 1885 1901 1916 1929 1946 1960 1968 1975 9999
1823 1809 1782 1745 1708 1692 1676 1664 1664 1679 1695 1709 1721 1734 1746 1754 1760 1761 1759 1754 1747 1730 1711 1688 1661 1635 1609 1592 1582 1582 1589 1597 1625 1664 1689 1698 1710 1736 1763 1788 1806 1820 1833 1843 1853 1861 1872 1884 1892 1901 1906 1914 1914 1902 1882 1858 1832 1806 1778 1743 1712 1699 1693 1702 1719 1736 1753 1765 1774 1781 1788 1790 1790 1788 1787 1783 1781 1788 1804 1832 1861 1884 1902 1908 1903 1882 1845 1803 1773 1748 1719 1688 1663 1639 1615 1589 1557 1524 1491 1458 1447 1452 1459 1442 1425 1404 1400 1404 1426 1450 1470 1488 1505 1522 1535 1548 1552 1554 1552 1546 1521 1484 1422 1393 1383 1385 1392 1399 1466 1507 1522 1537 1554 1570 1586 1604 1621 1638 1657 1676 1695 1721 1754 1784 1803 1809 1804 1788 1757 1732 1707 1667 1626 1597 1578 1555 1534 1522 1516 1512 1509 1505 1499 1486 1476 1478 1491 1509 1533 1558 1571 1588 1600 1600 1628 1661 1702 1731 1764 1784 1789 1779 1761 1744 1726 1702 1663 1637 1649 1682 1711 1746 1780 1808 1827 1842 1854 1871 1884 1898 1915 1929 1941 1962 9999
1804 1776 1738 1701 1689 1676 1669 1668 1680 1696 1713 1726 1738 1750 1761 1769 1774 1777 1775 1771 1759 1742 1721 1700 1673 1647 1620 1597 1588 1589 1591 1595 1597 1631 1654 1675 1695 1721 1746 1767 1787 1803 1815 1826 1835 1842 1850 1859 1864 1873 1886 1901 1902 1894 1870 1846 1823 1797 1773 1745 1719 1705 1711 1727 1747 1764 1779 1791 1797 1804 1814 1820 1821 1822 1824 1818 1813 1814 1831 1855 1885 1908 1924 1926 1916 1900 1858 1821 1791 1763 1732 1702 1676 1650 1625 1599 1559 1520 1486 1448 1428 1416 1416 1405 1401 1402 1414 1441 1476 1504 1523 1543 1562 1585 1593 1595 1596 1598 1592 1577 1553 1516 1441 1394 1384 1385 1393 1421 1498 1513 1527 1543 1559 1574 1589 1602 1619 1636 1654 1671 1688 1710 1742 1781 1804 1813 1810 1800 1772 1747 1724 1697 1660 1628 1599 1578 1552 1526 1518 1513 1509 1504 1499 1488 1480 1486 1498 1535 1571 1595 1597 1599 1600 1600 1603 1636 1679 1712 1746 1774 1789 1793 1790 1783 1775 1744 1704 1676 1656 1663 1688 1708 1742 1774 1795 1811 1823 1837 1849 1864 1885 1904 1924 1955 9999
1771 1738 1699 1687 1677 1673 1672 1679 1694 1711 1731 1745 1756 1767 1777 1786 1790 1792 1791 1786 1772 1755 1733 1710 1685 1659 1629 1604 1595 1597 1598 1599 1600 1611 1628 1646 1677 1704 1726 1747 1764 1782 1797 1808 1815 1820 1827 1832 1835 1842 1857 1876 1892 1888 1866 1834 1808 1796 1777 1753 1732 1725 1736 1753 1775 1792 1810 1825 1837 1847 1856 1864 1866 1867 1868 1866 1859 1849 1857 1879 1907 1939 1949 1943 1923 1901 1869 1839 1804 1773 1742 1712 1682 1653 1625 1596 1545 1499 1468 1431 1411 1403 1404 1407 1413 1425 1441 1482 1511 1539 1563 1587 1611 1626 1631 1630 1626 1612 1602 1600 1579 1535 1473 1396 1385 1388 1397 1455 1505 1518 1532 1546 1561 1574 1588 1600 1613 1630 1646 1663 1679 1698 1733 1770 1800 1811 1816 1804 1786 1766 1740 1714 1685 1655 1626 1598 1574 1550 1540 1530 1520 1509 1498 1489 1485 1491 1505 1554 1600 1600 1600 1599 1602 1606 1602 1612 1650 1693 1722 1749 1774 1795 1802 1810 1806 1784 1745 1712 1690 1677 1684 1697 1715 1732 1746 1773 1791 1803 1813 1830 1855 1888 1917 1956 9999
1730 1699 1688 1681 1683 1687 1691 1695 1699 1729 1750 1764 1776 1785 1795 1804 1810 1812 1810 1802 1788 1767 1743 1720 1695 1664 1632 1606 1601 1614 1624 1623 1610 1607 1606 1615 1651 1683 1707 1725 1742 1759 1773 1785 1793 1798 1803 1805 1806 1810 1825 1850 1882 1889 1865 1832 1800 1798 1783 1764 1749 1751 1762 1779 1800 1825 1846 1862 1877 1889 1898 1901 1902 1902 1903 1906 1903 1890 1886 1904 1951 1974 1970 1956 1938 1911 1883 1847 1811 1781 1751 1719 1686 1655 1623 1579 1529 1488 1444 1415 1406 1410 1424 1447 1459 1463 1477 1499 1534 1569 1596 1626 1648 1664 1668 1666 1651 1626 1608 1601 1584 1538 1482 1397 1385 1389 1404 1469 1504 1516 1529 1542 1555 1567 1580 1592 1606 1621 1636 1652 1669 1689 1716 1747 1780 1805 1816 1811 1801 1778 1751 1728 1705 1677 1647 1619 1594 1577 1564 1549 1533 1517 1500 1493 1490 1495 1517 1569 1600 1600 1600 1605 1613 1621 1626 1610 1619 1662 1703 1729 1758 1790 1812 1829 1828 1811 1787 1753 1723 1702 1698 1704 1713 1710 1714 1729 1752 1775 1790 1815 1851 1890 1922 1958 9999
1698 1689 1687 1694 1699 1710 1712 1714 1719 1744 1773 1785 1797 1807 1818 1828 1835 1837 1833 1820 1798 1774 1747 1721 1694 1662 1627 1605 1613 1635 1652 1654 1639 1622 1604 1605 1622 1655 1683 1702 1719 1735 1749 1758 1762 1756 1764 1769 1777 1794 1804 1837 1877 1892 1875 1842 1803 1799 1791 1777 1770 1776 1785 1805 1831 1858 1882 1898 1905 1904 1905 1910 1913 1915 1917 1928 1942 1938 1948 1983 1992 1984 1972 1959 1944 1916 1887 1855 1824 1794 1759 1722 1686 1653 1621 1567 1493 1470 1429 1410 1417 1446 1470 1492 1501 1504 1511 1525 1553 1589 1632 1668 1687 1700 1702 1691 1667 1636 1611 1600 1569 1524 1466 1399 1387 1389 1409 1459 1499 1510 1522 1534 1545 1555 1565 1578 1593 1609 1624 1639 1658 1676 1694 1723 1760 1799 1809 1813 1804 1789 1766 1739 1714 1692 1663 1635 1609 1591 1577 1561 1544 1526 1507 1497 1494 1498 1529 1572 1600 1600 1602 1612 1625 1639 1654 1642 1626 1638 1674 1705 1740 1782 1812 1839 1850 1839 1814 1784 1753 1732 1727 1734 1745 1736 1734 1735 1744 1762 1787 1816 1861 1903 1931 1954 9999
1696 1695 1706 1722 1736 1744 1742 1744 1756 1774 1798 1811 1822 1834 1844 1854 1860 1863 1853 1833 1803 1777 1752 1727 1701 1651 1616 1606 1626 1660 1678 1683 1674 1653 1624 1608 1609 1625 1652 1678 1696 1711 1724 1730 1730 1723 1726 1742 1767 1794 1813 1842 1879 1898 1888 1861 1835 1811 1798 1791 1790 1795 1809 1836 1862 1889 1909 1918 1918 1913 1909 1915 1921 1925 1928 1942 1953 1962 1966 1968 1949 1948 1944 1939 1929 1906 1887 1860 1833 1807 1771 1727 1686 1652 1619 1548 1482 1442 1419 1413 1438 1476 1503 1522 1537 1545 1557 1566 1584 1615 1665 1704 1722 1728 1718 1700 1668 1632 1606 1573 1532 1495 1454 1400 1387 1388 1402 1442 1476 1502 1512 1520 1529 1539 1550 1562 1577 1593 1609 1625 1641 1658 1675 1694 1725 1764 1800 1806 1806 1796 1767 1737 1711 1696 1667 1635 1605 1601 1588 1572 1555 1536 1518 1500 1498 1502 1533 1573 1598 1599 1608 1620 1637 1655 1671 1686 1680 1675 1670 1696 1730 1773 1806 1837 1862 1864 1838 1805 1780 1764 1758 1761 1780 1787 1789 1783 1772 1773 1796 1831 1870 1912 1949 1935 9999
1704 1717 1748 1767 1776 1778 1770 1774 1784 1797 1821 1838 1848 1859 1871 1880 1886 1887 1871 1840 1804 1777 1752 1726 1700 1660 1616 1614 1640 1680 1703 1710 1702 1685 1660 1630 1615 1616 1628 1650 1675 1689 1699 1706 1708 1712 1725 1757 1791 1813 1841 1872 1896 1906 1905 1894 1873 1850 1830 1818 1812 1814 1836 1867 1893 1913 1928 1936 1931 1923 1913 1913 1921 1925 1926 1924 1927 1911 1898 1891 1890 1899 1905 1906 1901 1891 1875 1854 1832 1811 1780 1732 1688 1652 1617 1540 1478 1437 1414 1420 1459 1496 1525 1550 1568 1584 1600 1608 1615 1657 1703 1736 1754 1740 1712 1685 1646 1612 1576 1528 1500 1472 1432 1398 1387 1387 1398 1422 1449 1475 1493 1503 1513 1523 1531 1543 1557 1574 1590 1606 1622 1638 1654 1671 1692 1724 1751 1782 1796 1783 1755 1727 1704 1684 1657 1624 1601 1600 1597 1583 1567 1549 1527 1509 1504 1514 1541 1574 1596 1601 1612 1628 1647 1666 1683 1700 1700 1700 1700 1702 1729 1767 1796 1823 1858 1877 1867 1833 1802 1790 1785 1784 1801 1809 1816 1812 1803 1798 1810 1847 1886 1932 1948 1908 9999
1739 1757 1789 1806 1812 1806 1793 1795 1798 1821 1845 1863 1874 1885 1897 1901 1900 1900 1884 1849 1812 1782 1753 1723 1693 1645 1620 1637 1673 1704 1732 1738 1731 1712 1691 1665 1636 1623 1623 1632 1654 1674 1688 1696 1712 1733 1760 1790 1814 1838 1863 1895 1923 1933 1931 1922 1908 1889 1868 1856 1846 1846 1863 1891 1918 1935 1949 1953 1947 1934 1920 1910 1915 1919 1915 1907 1899 1878 1857 1844 1838 1843 1853 1860 1867 1865 1855 1839 1821 1806 1781 1728 1685 1650 1614 1538 1490 1449 1417 1428 1473 1508 1544 1572 1597 1626 1652 1657 1657 1683 1722 1769 1758 1722 1692 1649 1608 1581 1535 1500 1498 1477 1428 1398 1390 1386 1391 1398 1415 1434 1449 1463 1489 1503 1512 1522 1536 1551 1568 1584 1601 1617 1631 1648 1669 1688 1697 1725 1748 1752 1734 1715 1699 1685 1660 1632 1611 1609 1603 1594 1580 1561 1537 1518 1507 1528 1556 1580 1600 1602 1618 1637 1657 1676 1692 1700 1700 1697 1702 1720 1740 1772 1796 1802 1842 1884 1886 1861 1821 1799 1798 1798 1810 1828 1838 1835 1830 1819 1830 1856 1894 1946 1921 1900 9999
1777 1794 1818 1833 1839 1832 1813 1799 1814 1846 1871 1889 1900 1910 1916 1915 1907 1900 1897 1859 1818 1783 1752 1720 1687 1640 1635 1668 1703 1733 1759 1767 1760 1742 1717 1692 1670 1645 1631 1632 1648 1669 1690 1708 1733 1760 1788 1811 1833 1857 1883 1914 1949 1960 1957 1949 1937 1922 1908 1894 1881 1879 1892 1914 1940 1958 1971 1970 1963 1947 1928 1913 1908 1909 1904 1891 1870 1847 1821 1803 1794 1795 1799 1812 1826 1832 1831 1820 1808 1800 1772 1722 1680 1646 1611 1552 1507 1466 1422 1429 1477 1518 1558 1592 1633 1676 1700 1699 1693 1698 1757 1781 1738 1695 1654 1608 1598 1568 1517 1500 1498 1492 1457 1422 1397 1391 1386 1389 1395 1398 1401 1413 1441 1460 1478 1498 1512 1528 1545 1563 1579 1593 1607 1622 1640 1657 1679 1697 1708 1726 1726 1716 1704 1695 1678 1657 1637 1636 1625 1610 1593 1573 1549 1517 1503 1529 1568 1591 1607 1619 1633 1652 1671 1688 1699 1699 1698 1693 1720 1743 1761 1782 1797 1808 1849 1893 1893 1868 1834 1810 1800 1800 1822 1851 1863 1858 1859 1852 1856 1875 1897 1948 1905 1900 9999
1807 1828 1849 1863 1867 1860 1838 1823 1840 1873 1900 1914 1925 1932 1937 1933 1921 1909 1898 1858 1818 1783 1752 1722 1689 1647 1656 1695 1732 1765 1790 1798 1791 1775 1748 1719 1694 1674 1649 1639 1645 1671 1696 1724 1752 1780 1805 1826 1849 1873 1899 1938 1973 1989 1984 1977 1969 1958 1947 1933 1919 1919 1932 1954 1969 1984 1992 1989 1977 1959 1937 1918 1906 1901 1887 1866 1844 1821 1796 1781 1773 1772 1774 1781 1791 1799 1804 1803 1801 1785 1756 1718 1681 1644 1608 1555 1500 1455 1422 1436 1485 1526 1569 1613 1667 1706 1718 1718 1716 1714 1786 1764 1701 1684 1637 1601 1598 1583 1555 1540 1524 1519 1502 1481 1445 1400 1394 1388 1387 1389 1391 1391 1398 1413 1430 1451 1480 1506 1523 1542 1556 1569 1582 1597 1612 1631 1665 1694 1713 1733 1740 1736 1725 1714 1702 1685 1670 1657 1642 1624 1605 1584 1550 1513 1500 1520 1566 1600 1613 1636 1652 1670 1686 1699 1700 1700 1699 1715 1746 1770 1785 1796 1815 1837 1868 1894 1893 1874 1850 1828 1812 1820 1846 1874 1885 1883 1888 1884 1883 1894 1909 1951 1906 1900 9999
1845 1865 1883 1896 1896 1892 1875 1863 1877 1897 1925 1940 1950 1956 1961 1953 1938 1921 1904 1864 1821 1783 1751 1718 1684 1659 1687 1727 1768 1801 1813 1819 1815 1803 1777 1749 1722 1693 1670 1652 1651 1674 1699 1733 1765 1796 1817 1837 1860 1884 1916 1966 2000 2000 2001 2004 2001 1997 1986 1971 1969 1969 1988 2002 2011 2017 2011 2000 1995 1970 1941 1919 1903 1884 1864 1843 1821 1798 1780 1763 1752 1749 1749 1754 1763 1772 1777 1778 1776 1766 1746 1717 1682 1645 1609 1550 1492 1447 1425 1452 1494 1540 1587 1636 1693 1722 1742 1749 1749 1752 1796 1761 1706 1687 1655 1628 1616 1612 1607 1592 1580 1569 1551 1533 1501 1453 1415 1396 1390 1389 1389 1389 1389 1391 1395 1407 1439 1470 1504 1522 1531 1543 1560 1584 1599 1622 1665 1701 1723 1746 1761 1760 1750 1739 1724 1708 1691 1673 1656 1638 1618 1594 1556 1516 1500 1514 1554 1592 1615 1640 1666 1687 1700 1716 1726 1730 1739 1760 1784 1799 1820 1844 1858 1872 1890 1897 1896 1885 1870 1853 1846 1854 1875 1896 1908 1910 1918 1914 1913 1921 1936 1963 1938 1908 9999
1883 1903 1914 1926 1928 1922 1903 1894 1895 1923 1950 1966 1975 1979 1982 1973 1956 1934 1907 1871 1830 1791 1753 1714 1683 1686 1717 1763 1804 1819 1831 1839 1836 1821 1804 1781 1752 1718 1692 1672 1658 1675 1699 1735 1770 1803 1825 1846 1867 1890 1930 1979 2000 2000 2010 2026 2032 2033 2024 2017 2028 2030 2050 2059 2050 2033 2012 1999 1975 1946 1921 1899 1881 1861 1842 1821 1799 1780 1762 1746 1732 1725 1724 1726 1736 1745 1751 1753 1751 1744 1730 1710 1678 1640 1602 1536 1483 1439 1431 1470 1509 1561 1611 1660 1706 1734 1761 1779 1781 1787 1798 1788 1747 1707 1683 1661 1650 1643 1634 1622 1616 1607 1598 1574 1538 1498 1459 1423 1399 1398 1399 1401 1399 1397 1391 1392 1399 1428 1470 1497 1506 1518 1539 1572 1599 1637 1674 1708 1736 1761 1781 1784 1776 1761 1744 1727 1707 1688 1670 1650 1628 1603 1568 1524 1501 1508 1546 1589 1617 1645 1672 1696 1711 1733 1754 1768 1782 1803 1821 1835 1867 1894 1904 1906 1913 1914 1911 1903 1895 1889 1880 1885 1899 1920 1934 1939 1947 1947 1950 1964 1974 1977 1959 1933 9999
1912 1929 1942 1956 1961 1952 1930 1901 1899 1942 1982 1996 2001 2001 2000 1991 1969 1941 1910 1871 1831 1791 1750 1710 1699 1713 1751 1791 1817 1837 1851 1860 1858 1843 1827 1810 1785 1752 1720 1692 1673 1675 1698 1737 1775 1806 1828 1851 1873 1895 1934 1977 2001 2009 2040 2054 2064 2070 2064 2064 2088 2087 2074 2043 2011 2000 1986 1965 1941 1915 1891 1874 1858 1838 1819 1799 1780 1761 1743 1727 1711 1703 1700 1700 1710 1719 1726 1729 1729 1721 1711 1699 1668 1634 1595 1523 1474 1435 1440 1485 1525 1571 1620 1671 1712 1742 1773 1797 1802 1814 1821 1814 1794 1754 1716 1694 1682 1673 1659 1647 1636 1626 1617 1606 1579 1539 1500 1464 1441 1434 1460 1473 1457 1438 1397 1391 1394 1399 1436 1459 1479 1497 1523 1558 1590 1630 1675 1713 1742 1771 1795 1801 1797 1781 1763 1744 1724 1704 1684 1661 1636 1610 1579 1535 1504 1505 1541 1589 1619 1645 1671 1698 1722 1747 1772 1794 1811 1827 1846 1867 1897 1915 1928 1934 1945 1948 1942 1930 1923 1920 1908 1906 1916 1945 1958 1967 1976 1980 1987 2002 2003 2001 1983 1956 9999
1934 1952 1968 1985 1992 1982 1952 1926 1929 1983 2007 2015 2018 2014 2010 2002 1985 1949 1912 1874 1835 1797 1753 1710 1695 1725 1775 1808 1829 1850 1870 1880 1879 1867 1851 1832 1812 1785 1751 1716 1692 1683 1697 1732 1775 1808 1830 1853 1875 1898 1932 1966 1998 2031 2080 2082 2089 2099 2096 2087 2078 2046 2006 1988 1971 1960 1945 1921 1898 1886 1868 1850 1834 1815 1795 1776 1758 1740 1723 1707 1692 1681 1676 1673 1682 1693 1700 1704 1707 1701 1695 1678 1647 1616 1582 1517 1474 1436 1446 1488 1528 1573 1618 1666 1707 1738 1770 1799 1813 1838 1854 1843 1814 1786 1752 1725 1711 1698 1682 1668 1655 1644 1631 1617 1605 1580 1541 1502 1478 1478 1502 1508 1508 1485 1411 1395 1394 1397 1412 1441 1468 1492 1513 1553 1592 1632 1674 1712 1743 1774 1800 1810 1808 1800 1782 1763 1742 1721 1701 1678 1652 1624 1594 1550 1508 1504 1539 1585 1615 1644 1674 1703 1730 1756 1783 1803 1821 1840 1860 1882 1901 1920 1939 1955 1967 1973 1971 1962 1953 1951 1944 1950 1957 1974 1983 1995 2004 2010 2016 2024 2020 2012 2002 1980 9999
1956 1975 1993 2006 2011 2003 1988 1984 1991 2006 2024 2036 2035 2027 2016 2003 1982 1948 1912 1877 1841 1804 1759 1711 1700 1737 1788 1819 1843 1864 1883 1900 1900 1892 1874 1855 1834 1811 1780 1746 1709 1696 1698 1723 1764 1803 1825 1848 1870 1892 1921 1952 1979 2011 2101 2100 2102 2100 2100 2070 2031 1997 1966 1950 1934 1920 1903 1888 1871 1859 1843 1825 1809 1792 1773 1753 1734 1718 1701 1685 1660 1657 1651 1647 1651 1658 1663 1667 1671 1662 1660 1648 1622 1591 1550 1504 1468 1439 1452 1491 1531 1577 1618 1659 1701 1731 1761 1789 1814 1846 1865 1857 1832 1806 1776 1751 1734 1716 1700 1685 1671 1656 1641 1623 1610 1603 1581 1544 1517 1512 1531 1541 1537 1513 1500 1398 1395 1396 1404 1436 1468 1495 1524 1560 1594 1633 1675 1712 1743 1773 1801 1815 1821 1813 1801 1780 1758 1737 1717 1694 1664 1631 1595 1553 1512 1503 1525 1568 1602 1636 1671 1704 1731 1758 1785 1805 1823 1843 1863 1880 1895 1909 1928 1946 1967 1980 1986 1986 1982 1980 1982 1991 2000 2004 2011 2019 2033 2041 2051 2050 2039 2021 2005 1999 9999
1974 1998 2013 2026 2028 2015 1999 1991 1995 2016 2045 2049 2041 2027 2011 1997 1969 1938 1907 1873 1839 1804 1758 1710 1705 1746 1796 1824 1851 1875 1897 1912 1918 1911 1896 1878 1857 1834 1808 1775 1738 1710 1702 1718 1758 1796 1820 1842 1865 1885 1908 1935 1961 1983 2042 2059 2080 2091 2087 2051 2005 1966 1934 1912 1898 1887 1875 1863 1847 1832 1817 1800 1785 1769 1750 1730 1710 1693 1675 1650 1633 1631 1628 1622 1620 1622 1624 1625 1625 1622 1620 1613 1596 1569 1533 1497 1463 1442 1460 1496 1535 1581 1621 1656 1691 1717 1745 1773 1802 1829 1853 1857 1845 1818 1792 1769 1747 1725 1705 1698 1683 1666 1639 1619 1612 1606 1599 1588 1568 1559 1564 1578 1566 1530 1498 1403 1395 1396 1403 1438 1472 1502 1530 1558 1587 1623 1666 1705 1736 1768 1799 1816 1830 1829 1812 1794 1772 1750 1727 1704 1670 1633 1596 1558 1517 1503 1517 1553 1590 1622 1658 1694 1722 1749 1777 1803 1819 1836 1852 1867 1882 1895 1909 1925 1949 1969 1980 1989 1996 2001 2000 2008 2019 2028 2042 2046 2063 2068 2072 2066 2049 2028 2011 2001 9999
1993 2013 2032 2046 2042 2024 2005 1994 1997 2026 2058 2052 2033 2014 2002 1984 1959 1932 1901 1869 1837 1805 1762 1712 1713 1758 1802 1830 1857 1884 1910 1931 1939 1935 1924 1903 1882 1860 1833 1800 1766 1732 1712 1714 1747 1789 1815 1836 1856 1876 1897 1922 1945 1966 1988 2016 2040 2058 2051 2023 1981 1941 1905 1884 1873 1861 1849 1838 1823 1807 1792 1776 1758 1745 1726 1707 1688 1665 1640 1623 1616 1613 1609 1603 1598 1591 1586 1579 1576 1571 1570 1570 1546 1536 1521 1497 1465 1447 1458 1489 1527 1578 1617 1648 1675 1700 1725 1753 1783 1806 1827 1843 1844 1826 1801 1778 1753 1729 1709 1700 1684 1655 1626 1619 1614 1607 1600 1600 1596 1600 1600 1600 1587 1549 1507 1432 1397 1396 1403 1442 1479 1510 1536 1562 1588 1623 1662 1701 1732 1763 1792 1814 1835 1840 1827 1804 1782 1759 1735 1710 1676 1636 1598 1563 1524 1505 1507 1535 1569 1601 1637 1674 1708 1734 1762 1790 1809 1824 1838 1852 1865 1879 1892 1905 1924 1944 1958 1972 1985 1998 2002 2016 2042 2053 2059 2064 2069 2074 2079 2075 2062 2044 2028 2018 9999
2006 2027 2049 2060 2057 2037 2013 2006 2016 2050 2069 2044 2013 1999 1980 1963 1946 1922 1895 1864 1832 1800 1757 1717 1720 1768 1807 1836 1864 1892 1923 1950 1963 1964 1958 1933 1909 1886 1858 1824 1789 1758 1720 1704 1725 1777 1808 1828 1847 1867 1886 1905 1927 1948 1971 1998 2011 2026 2021 2001 1955 1913 1886 1867 1849 1836 1823 1811 1799 1781 1759 1747 1731 1718 1703 1687 1664 1645 1632 1622 1618 1618 1619 1616 1603 1588 1574 1560 1542 1531 1520 1512 1507 1504 1505 1498 1478 1452 1457 1488 1527 1578 1615 1640 1662 1682 1703 1729 1756 1781 1803 1817 1831 1824 1803 1779 1754 1729 1709 1695 1671 1642 1629 1623 1619 1616 1610 1605 1602 1599 1600 1600 1596 1553 1508 1447 1398 1397 1399 1440 1481 1513 1536 1560 1584 1614 1657 1699 1729 1757 1786 1810 1835 1848 1840 1815 1792 1767 1741 1713 1678 1638 1598 1564 1527 1509 1503 1513 1542 1582 1614 1651 1687 1715 1742 1768 1793 1809 1821 1835 1849 1863 1875 1888 1904 1920 1936 1952 1967 1983 1999 2016 2044 2056 2051 2051 2053 2058 2075 2083 2079 2068 2058 2047 9999
2017 2042 2060 2071 2076 2083 2079 2062 2071 2077 2056 2014 1989 1970 1953 1937 1922 1907 1886 1858 1828 1796 1755 1722 1729 1772 1809 1842 1874 1904 1937 1967 1988 2000 1988 1958 1932 1910 1885 1854 1812 1776 1732 1707 1716 1760 1796 1815 1833 1851 1869 1888 1908 1932 1960 1993 2001 2005 2002 1969 1927 1891 1870 1848 1830 1813 1799 1786 1772 1746 1723 1715 1712 1700 1695 1678 1666 1661 1656 1648 1643 1650 1650 1643 1631 1622 1614 1605 1596 1586 1566 1544 1524 1521 1521 1512 1489 1461 1457 1482 1510 1562 1606 1627 1645 1663 1682 1703 1727 1751 1774 1798 1811 1812 1800 1782 1747 1718 1701 1684 1666 1649 1641 1641 1642 1637 1617 1611 1608 1605 1602 1600 1600 1563 1518 1464 1404 1397 1399 1430 1471 1507 1530 1555 1579 1605 1648 1690 1722 1750 1779 1805 1833 1854 1853 1827 1801 1773 1744 1714 1678 1639 1599 1561 1537 1521 1508 1507 1521 1558 1591 1623 1658 1692 1720 1745 1768 1787 1805 1820 1834 1846 1858 1872 1887 1901 1915 1929 1945 1963 1980 1994 2004 2014 2015 2017 2020 2028 2049 2074 2087 2089 2083 2080 9999
2025 2047 2067 2078 2083 2090 2096 2095 2085 2051 2010 1985 1962 1939 1922 1908 1896 1878 1857 1836 1810 1791 1755 1731 1739 1778 1811 1844 1879 1916 1958 1991 2000 2000 1997 1973 1949 1926 1909 1884 1842 1798 1759 1718 1713 1743 1775 1799 1815 1831 1851 1873 1892 1913 1939 1969 1994 1998 1976 1940 1902 1880 1857 1833 1811 1796 1780 1759 1741 1723 1711 1707 1711 1704 1697 1696 1695 1696 1694 1689 1690 1684 1680 1673 1665 1658 1649 1638 1628 1621 1611 1601 1584 1567 1553 1525 1496 1471 1460 1474 1499 1546 1586 1608 1626 1640 1660 1680 1697 1719 1743 1768 1789 1791 1800 1784 1750 1718 1699 1692 1686 1676 1670 1674 1669 1649 1625 1616 1611 1608 1606 1603 1600 1567 1522 1472 1420 1398 1399 1420 1462 1501 1525 1550 1573 1596 1632 1672 1709 1739 1770 1801 1828 1858 1862 1839 1806 1779 1749 1717 1676 1628 1593 1568 1551 1546 1536 1511 1508 1526 1563 1595 1629 1663 1697 1722 1744 1765 1787 1805 1817 1829 1840 1854 1868 1882 1894 1906 1924 1940 1953 1963 1967 1970 1978 1985 1992 2002 2023 2053 2083 2098 2100 2100 9999
2031 2051 2070 2082 2086 2092 2098 2096 2073 2016 1987 1962 1930 1909 1897 1888 1868 1843 1819 1806 1793 1775 1751 1740 1754 1787 1818 1853 1886 1927 1978 2000 2000 2000 2001 1978 1955 1932 1914 1902 1868 1810 1770 1731 1717 1727 1755 1780 1797 1816 1838 1862 1884 1898 1911 1946 1981 1990 1958 1918 1897 1876 1847 1821 1799 1786 1768 1749 1735 1724 1722 1733 1745 1736 1731 1736 1735 1734 1727 1721 1721 1715 1710 1704 1700 1694 1683 1670 1658 1647 1635 1624 1613 1601 1576 1545 1509 1484 1465 1475 1499 1532 1564 1590 1601 1617 1632 1657 1683 1698 1712 1731 1746 1773 1792 1786 1755 1727 1714 1710 1711 1706 1703 1701 1689 1660 1638 1625 1617 1613 1611 1608 1602 1568 1524 1481 1435 1399 1398 1418 1457 1494 1520 1542 1564 1586 1616 1659 1701 1732 1763 1794 1823 1858 1869 1853 1819 1791 1755 1719 1674 1620 1590 1579 1583 1587 1572 1538 1514 1511 1531 1569 1599 1632 1666 1701 1724 1746 1766 1784 1800 1811 1823 1835 1849 1863 1873 1887 1902 1913 1923 1928 1929 1928 1937 1950 1969 1995 2010 2045 2077 2094 2100 2100 9999
2038 2055 2073 2085 2088 2092 2097 2094 2045 2001 1989 1958 1919 1897 1890 1877 1855 1828 1804 1798 1786 1770 1756 1747 1763 1792 1826 1862 1898 1943 1989 2000 2000 2000 1989 1967 1943 1927 1916 1906 1882 1827 1787 1752 1728 1727 1741 1766 1789 1809 1832 1856 1879 1896 1896 1934 1980 1989 1959 1922 1899 1880 1855 1828 1805 1795 1783 1771 1755 1745 1754 1776 1783 1777 1779 1780 1778 1772 1760 1756 1751 1744 1736 1729 1724 1718 1709 1699 1685 1670 1657 1644 1632 1616 1598 1561 1519 1490 1471 1477 1498 1527 1557 1582 1597 1599 1615 1643 1674 1693 1699 1701 1725 1757 1785 1788 1766 1744 1739 1734 1733 1727 1722 1718 1708 1691 1660 1647 1637 1630 1624 1615 1604 1573 1533 1493 1450 1410 1399 1411 1447 1484 1512 1533 1556 1580 1608 1650 1692 1726 1757 1789 1820 1856 1874 1865 1831 1799 1756 1713 1667 1615 1598 1598 1613 1616 1600 1576 1538 1513 1514 1539 1572 1598 1634 1671 1705 1726 1745 1762 1778 1791 1803 1815 1830 1842 1852 1867 1879 1887 1892 1893 1892 1893 1903 1925 1956 1986 2011 2035 2057 2076 2093 2100 9999
2048 2061 2077 2087 2091 2093 2096 2087 2040 2015 2002 1987 1947 1898 1894 1884 1865 1839 1816 1799 1795 1783 1767 1756 1765 1792 1827 1866 1904 1938 1968 1992 2000 1991 1962 1948 1938 1930 1921 1912 1898 1849 1798 1767 1741 1735 1744 1765 1793 1811 1831 1854 1876 1894 1908 1946 1986 1994 1974 1950 1923 1900 1881 1857 1836 1821 1808 1798 1788 1777 1787 1802 1812 1813 1814 1815 1813 1805 1794 1789 1781 1772 1760 1753 1747 1738 1729 1718 1706 1691 1677 1662 1646 1627 1605 1569 1529 1495 1477 1479 1498 1529 1558 1582 1598 1602 1615 1640 1669 1692 1698 1703 1722 1752 1781 1791 1783 1771 1765 1759 1754 1747 1740 1734 1723 1711 1694 1679 1664 1652 1639 1624 1609 1582 1542 1503 1462 1424 1399 1404 1437 1472 1502 1525 1548 1573 1598 1640 1682 1717 1752 1787 1818 1856 1879 1875 1841 1806 1762 1715 1668 1619 1604 1627 1643 1642 1626 1601 1571 1534 1515 1518 1542 1575 1603 1640 1676 1706 1724 1741 1757 1772 1784 1797 1811 1820 1831 1844 1855 1860 1863 1863 1861 1867 1890 1915 1945 1974 2001 2022 2041 2058 2074 2084 9999
2056 2071 2082 2092 2094 2095 2097 2081 2057 2042 2029 2019 2006 1976 1927 1898 1887 1866 1844 1826 1816 1802 1786 1766 1771 1795 1834 1877 1908 1927 1942 1955 1954 1949 1947 1949 1945 1941 1935 1923 1907 1865 1807 1779 1754 1744 1752 1776 1798 1819 1839 1857 1878 1895 1942 1983 2000 2002 1999 1987 1962 1941 1914 1889 1869 1851 1837 1824 1811 1803 1810 1824 1837 1839 1841 1841 1840 1832 1824 1819 1809 1796 1784 1777 1768 1758 1747 1735 1722 1708 1693 1675 1655 1633 1611 1578 1537 1498 1483 1485 1500 1535 1568 1594 1611 1626 1637 1652 1675 1693 1706 1726 1748 1767 1790 1798 1799 1796 1790 1783 1774 1765 1758 1749 1737 1724 1709 1693 1678 1662 1646 1628 1610 1584 1545 1504 1467 1425 1401 1403 1426 1462 1492 1515 1540 1566 1593 1630 1667 1703 1739 1777 1811 1850 1881 1882 1852 1812 1769 1719 1679 1654 1647 1666 1675 1671 1653 1625 1597 1568 1531 1516 1522 1549 1575 1603 1638 1673 1705 1723 1740 1754 1767 1781 1791 1797 1809 1821 1830 1831 1835 1832 1829 1838 1870 1907 1936 1962 1986 2006 2024 2040 2054 2063 9999
2064 2078 2090 2098 2099 2099 2102 2093 2082 2071 2059 2046 2033 2019 2005 1976 1932 1892 1874 1857 1843 1823 1798 1777 1779 1801 1842 1887 1921 1941 1954 1961 1971 1985 1980 1971 1968 1962 1951 1935 1914 1877 1820 1789 1769 1756 1760 1778 1798 1821 1843 1865 1886 1920 1977 2011 2023 2027 2024 2014 2001 1981 1953 1922 1896 1878 1862 1847 1831 1825 1831 1846 1861 1866 1868 1868 1868 1861 1855 1846 1836 1822 1809 1799 1788 1777 1765 1752 1738 1723 1706 1686 1664 1642 1618 1587 1541 1499 1487 1490 1508 1549 1586 1609 1625 1641 1656 1672 1689 1708 1732 1754 1773 1791 1812 1825 1829 1826 1817 1805 1793 1784 1775 1764 1752 1737 1721 1702 1684 1667 1649 1631 1614 1590 1550 1506 1473 1438 1414 1411 1429 1459 1482 1506 1531 1556 1582 1614 1650 1687 1725 1765 1804 1843 1882 1887 1856 1812 1767 1716 1697 1691 1694 1699 1709 1700 1679 1647 1620 1591 1556 1525 1517 1521 1539 1574 1601 1638 1676 1707 1723 1737 1751 1763 1771 1779 1790 1798 1803 1803 1808 1802 1799 1813 1855 1897 1922 1945 1967 1987 2007 2022 2034 2042 9999
2075 2089 2101 2123 2128 2128 2127 2118 2108 2099 2084 2073 2060 2045 2030 2017 2003 1965 1904 1885 1866 1839 1812 1788 1787 1816 1854 1895 1936 1967 1989 2006 2013 2020 2014 2003 1991 1979 1964 1943 1917 1880 1823 1789 1774 1770 1775 1783 1798 1823 1850 1874 1898 1954 2005 2028 2047 2053 2050 2037 2024 2011 1988 1956 1928 1903 1885 1868 1855 1850 1853 1868 1884 1892 1894 1894 1895 1891 1884 1873 1863 1849 1837 1824 1809 1795 1781 1767 1751 1734 1717 1699 1677 1652 1625 1596 1551 1506 1493 1495 1519 1567 1604 1621 1638 1654 1669 1686 1705 1730 1755 1779 1800 1819 1840 1856 1860 1856 1845 1833 1818 1802 1790 1779 1765 1750 1732 1711 1691 1674 1655 1637 1618 1596 1549 1503 1483 1459 1433 1421 1430 1448 1462 1490 1512 1538 1567 1600 1637 1676 1716 1759 1802 1842 1882 1891 1867 1822 1777 1711 1700 1699 1701 1740 1746 1731 1698 1667 1635 1601 1574 1546 1531 1521 1523 1540 1572 1597 1633 1675 1706 1721 1734 1744 1753 1762 1771 1779 1781 1780 1787 1792 1797 1799 1839 1875 1905 1927 1946 1964 1985 2002 2013 2021 9999
2090 2107 2133 2156 2162 2158 2154 2143 2132 2121 2108 2099 2086 2068 2055 2041 2027 2012 1980 1927 1883 1852 1821 1795 1793 1823 1863 1903 1954 1990 2015 2038 2049 2048 2039 2025 2010 1996 1973 1947 1919 1881 1821 1792 1789 1791 1796 1794 1798 1813 1853 1882 1919 1974 2016 2045 2069 2078 2075 2057 2046 2030 2012 1989 1961 1933 1903 1887 1879 1873 1876 1886 1903 1917 1921 1921 1923 1920 1912 1901 1891 1877 1863 1848 1831 1814 1796 1780 1763 1746 1729 1711 1686 1658 1628 1597 1554 1513 1498 1499 1539 1590 1614 1632 1649 1666 1682 1699 1725 1752 1777 1803 1833 1853 1871 1887 1891 1886 1874 1861 1847 1830 1810 1794 1781 1764 1744 1722 1699 1680 1660 1640 1620 1597 1547 1499 1483 1463 1443 1431 1429 1434 1448 1471 1494 1520 1553 1592 1628 1665 1708 1754 1798 1837 1879 1894 1876 1833 1792 1723 1700 1701 1737 1780 1781 1756 1717 1681 1648 1613 1585 1568 1558 1552 1531 1525 1534 1560 1591 1629 1672 1705 1716 1725 1735 1744 1752 1758 1758 1759 1765 1773 1781 1793 1821 1854 1883 1907 1922 1939 1953 1967 1984 1999 9999
2104 2141 2172 2190 2195 2188 2179 2166 2156 2142 2129 2119 2106 2092 2080 2065 2047 2030 2012 1981 1899 1866 1827 1799 1798 1834 1885 1928 1976 2013 2041 2067 2083 2075 2062 2046 2028 2008 1981 1951 1919 1879 1818 1794 1805 1817 1822 1810 1803 1813 1846 1887 1937 1995 2028 2059 2087 2101 2095 2079 2068 2050 2030 2012 1991 1962 1931 1900 1895 1891 1892 1907 1926 1941 1947 1948 1949 1950 1943 1936 1924 1904 1887 1870 1852 1832 1811 1793 1777 1759 1738 1716 1691 1661 1630 1599 1558 1520 1497 1510 1559 1603 1623 1641 1659 1677 1695 1720 1748 1775 1801 1834 1865 1889 1904 1918 1921 1914 1904 1892 1876 1858 1839 1818 1798 1779 1759 1736 1710 1687 1666 1644 1622 1599 1549 1499 1483 1465 1446 1434 1430 1431 1442 1462 1485 1507 1541 1577 1611 1653 1695 1738 1787 1828 1875 1896 1884 1839 1799 1744 1725 1733 1773 1805 1805 1777 1734 1693 1660 1625 1596 1589 1590 1592 1570 1543 1529 1531 1557 1589 1621 1660 1693 1708 1717 1724 1732 1736 1735 1737 1742 1752 1766 1783 1801 1830 1857 1878 1895 1907 1916 1927 1944 1955 9999
2123 2163 2198 2204 2206 2204 2201 2190 2178 2161 2149 2137 2123 2113 2101 2083 2064 2045 2022 1998 1946 1886 1842 1801 1810 1853 1902 1952 2000 2029 2057 2085 2100 2098 2080 2059 2037 2013 1984 1950 1916 1874 1816 1804 1828 1849 1853 1843 1824 1807 1844 1889 1948 2005 2038 2070 2100 2106 2105 2100 2088 2068 2048 2032 2014 1993 1960 1927 1900 1900 1913 1935 1952 1965 1972 1974 1976 1980 1979 1974 1961 1936 1912 1890 1871 1849 1828 1808 1789 1769 1747 1725 1703 1671 1635 1600 1562 1524 1504 1523 1571 1609 1630 1650 1668 1687 1709 1740 1769 1798 1834 1868 1899 1923 1937 1949 1951 1944 1935 1923 1905 1888 1870 1847 1822 1798 1776 1752 1725 1695 1672 1648 1621 1591 1540 1497 1485 1470 1454 1442 1435 1434 1446 1469 1490 1516 1549 1580 1613 1647 1682 1726 1786 1827 1874 1898 1889 1845 1800 1782 1767 1773 1802 1822 1817 1790 1746 1701 1667 1629 1604 1600 1615 1618 1603 1586 1563 1535 1533 1551 1581 1599 1633 1671 1696 1705 1713 1714 1712 1714 1720 1734 1752 1772 1787 1803 1826 1846 1862 1875 1882 1891 1902 1908 9999
2136 2174 2200 2206 2211 2214 2211 2205 2196 2179 2168 2154 2142 2128 2114 2099 2077 2054 2029 2005 1959 1906 1864 1832 1835 1875 1920 1969 2012 2045 2074 2100 2100 2100 2091 2066 2040 2013 1981 1945 1910 1862 1810 1809 1853 1879 1885 1875 1844 1805 1823 1897 1956 2007 2041 2075 2102 2112 2117 2113 2103 2085 2068 2052 2034 2016 1994 1963 1932 1924 1944 1966 1982 1991 1998 2002 2003 2011 2011 2007 1993 1967 1939 1910 1886 1865 1843 1822 1802 1780 1758 1735 1710 1678 1639 1601 1561 1518 1503 1536 1579 1613 1636 1657 1678 1697 1728 1760 1791 1827 1866 1900 1930 1957 1972 1981 1982 1976 1967 1953 1936 1919 1897 1873 1847 1822 1799 1773 1743 1709 1680 1652 1623 1589 1534 1499 1492 1481 1467 1452 1442 1441 1455 1478 1497 1535 1573 1605 1643 1672 1694 1735 1783 1817 1862 1896 1897 1860 1797 1798 1794 1797 1823 1845 1831 1799 1752 1701 1669 1633 1613 1623 1644 1643 1631 1617 1598 1572 1544 1536 1544 1568 1594 1628 1646 1665 1683 1682 1680 1689 1704 1722 1743 1759 1773 1786 1797 1814 1830 1844 1852 1864 1872 1875 9999
2132 2164 2188 2201 2204 2212 2216 2214 2205 2197 2184 2169 2154 2140 2124 2109 2091 2065 2040 2013 1973 1916 1893 1879 1870 1893 1938 1988 2024 2057 2089 2100 2100 2100 2100 2074 2041 2009 1972 1934 1898 1846 1809 1822 1877 1900 1905 1903 1868 1815 1819 1888 1945 2006 2040 2074 2102 2115 2126 2126 2114 2103 2089 2072 2055 2037 2017 1994 1972 1968 1982 2001 2016 2025 2034 2038 2038 2040 2035 2027 2012 1993 1961 1929 1897 1875 1854 1832 1812 1790 1767 1742 1717 1691 1647 1602 1553 1507 1503 1541 1591 1619 1643 1666 1688 1714 1749 1782 1817 1857 1896 1928 1960 1988 2001 2002 2002 2001 1999 1985 1967 1947 1923 1897 1871 1846 1821 1797 1764 1726 1689 1658 1626 1597 1550 1507 1499 1492 1479 1461 1449 1448 1460 1481 1499 1548 1597 1640 1685 1720 1738 1774 1795 1814 1855 1891 1902 1895 1841 1800 1809 1829 1857 1865 1846 1806 1761 1712 1658 1622 1630 1663 1675 1672 1661 1645 1625 1604 1582 1557 1540 1545 1569 1589 1599 1615 1629 1631 1626 1652 1692 1715 1731 1744 1757 1769 1779 1788 1800 1814 1824 1835 1842 1846 9999
2113 2141 2167 2196 2198 2201 2208 2214 2210 2204 2196 2182 2166 2149 2131 2115 2102 2077 2048 2017 1976 1918 1899 1897 1896 1908 1956 2003 2034 2063 2094 2100 2100 2100 2100 2073 2038 2004 1966 1927 1885 1827 1815 1851 1898 1916 1924 1921 1906 1853 1817 1866 1929 2005 2038 2070 2099 2114 2130 2137 2132 2121 2108 2094 2077 2057 2036 2014 1998 1997 2014 2035 2053 2061 2071 2075 2072 2067 2058 2043 2025 2005 1975 1941 1906 1882 1860 1840 1820 1800 1775 1751 1728 1702 1655 1604 1554 1505 1510 1559 1604 1629 1653 1676 1699 1736 1774 1807 1845 1886 1920 1953 1985 2002 2007 2007 2007 2006 2006 2003 1997 1975 1950 1922 1893 1866 1840 1815 1782 1738 1694 1655 1616 1599 1585 1548 1518 1502 1489 1471 1456 1452 1461 1480 1497 1543 1595 1679 1724 1763 1796 1812 1811 1826 1860 1894 1900 1914 1906 1869 1857 1870 1878 1872 1852 1814 1771 1714 1662 1633 1661 1700 1705 1702 1689 1672 1651 1632 1611 1588 1561 1545 1547 1559 1573 1585 1592 1598 1598 1634 1672 1702 1716 1729 1741 1751 1759 1766 1776 1785 1795 1806 1812 1817 9999
2100 2113 2165 2198 2195 2187 2200 2207 2208 2204 2197 2182 2166 2149 2132 2117 2103 2081 2051 2019 1979 1931 1899 1899 1899 1919 1971 2013 2042 2074 2100 2100 2100 2100 2100 2060 2020 1988 1954 1917 1874 1824 1844 1886 1914 1940 1948 1941 1918 1881 1828 1845 1899 2005 2035 2062 2089 2108 2127 2141 2146 2142 2128 2112 2097 2077 2057 2033 2011 2016 2045 2068 2088 2098 2101 2101 2100 2089 2074 2054 2032 2009 1980 1946 1914 1889 1869 1849 1828 1808 1785 1758 1730 1703 1655 1605 1553 1507 1513 1569 1610 1640 1665 1689 1718 1753 1792 1832 1870 1906 1936 1968 2000 2007 2011 2012 2012 2012 2013 2010 2005 2000 1977 1948 1913 1883 1855 1826 1791 1735 1687 1654 1629 1621 1613 1592 1561 1529 1499 1484 1468 1455 1461 1478 1494 1529 1582 1706 1749 1791 1820 1844 1858 1867 1887 1906 1921 1939 1931 1911 1893 1886 1881 1866 1844 1817 1773 1703 1668 1668 1699 1726 1731 1726 1713 1699 1678 1660 1638 1613 1592 1570 1552 1550 1553 1561 1571 1582 1595 1618 1649 1677 1700 1712 1723 1731 1738 1742 1748 1756 1764 1771 1767 1770 9999
2098 2118 2182 2199 2183 2156 2177 2199 2201 2198 2186 2173 2158 2142 2127 2113 2100 2078 2046 2015 1973 1915 1900 1900 1900 1933 1991 2022 2050 2078 2100 2100 2100 2100 2091 2055 2011 1973 1939 1903 1854 1834 1881 1917 1946 1966 1973 1962 1937 1903 1852 1839 1887 1982 2019 2047 2074 2100 2116 2137 2152 2155 2150 2134 2114 2099 2081 2059 2051 2069 2080 2100 2105 2108 2110 2109 2105 2100 2082 2057 2030 2005 1980 1951 1924 1898 1877 1856 1836 1816 1796 1768 1739 1710 1664 1608 1556 1509 1514 1569 1611 1645 1676 1703 1737 1771 1806 1847 1887 1918 1945 1975 2000 2007 2011 2015 2016 2016 2015 2013 2009 2004 2000 1968 1932 1900 1862 1824 1783 1733 1692 1670 1655 1651 1635 1614 1585 1552 1521 1495 1478 1458 1457 1470 1487 1507 1570 1705 1754 1801 1832 1864 1889 1901 1915 1937 1956 1970 1963 1940 1907 1892 1877 1859 1837 1815 1771 1699 1694 1705 1732 1752 1757 1748 1734 1719 1704 1690 1668 1643 1620 1598 1580 1567 1557 1556 1560 1566 1581 1598 1624 1650 1671 1690 1704 1711 1716 1718 1721 1725 1728 1727 1719 1730 9999
2133 2153 2188 2184 2143 2120 2143 2177 2185 2174 2165 2154 2144 2132 2118 2106 2098 2069 2036 2004 1954 1901 1900 1900 1900 1948 2004 2030 2057 2085 2100 2100 2100 2100 2072 2038 2002 1968 1933 1897 1850 1859 1905 1950 1981 2002 2000 1986 1957 1915 1872 1847 1874 1918 2004 2031 2057 2083 2106 2126 2148 2161 2164 2155 2132 2117 2103 2089 2106 2145 2101 2109 2115 2117 2116 2113 2106 2100 2078 2049 2021 1996 1974 1951 1927 1903 1882 1862 1843 1824 1805 1779 1749 1718 1674 1610 1557 1511 1520 1573 1615 1649 1685 1721 1757 1791 1826 1860 1895 1923 1949 1975 2000 2004 2009 2016 2020 2015 2012 2011 2008 2005 2000 1972 1935 1902 1852 1802 1769 1738 1711 1692 1686 1676 1656 1631 1605 1575 1541 1501 1480 1459 1454 1463 1480 1496 1557 1703 1752 1799 1831 1863 1895 1914 1939 1967 1991 2001 1993 1970 1935 1898 1882 1863 1841 1816 1776 1710 1706 1744 1772 1782 1782 1769 1754 1739 1726 1713 1698 1675 1652 1627 1604 1590 1577 1565 1562 1563 1569 1583 1598 1620 1638 1658 1675 1688 1699 1699 1698 1699 1701 1715 1737 1770 9999
2167 2181 2179 2140 2102 2099 2125 2185 2155 2147 2141 2131 2121 2115 2107 2096 2077 2056 2028 1999 1945 1900 1900 1900 1900 1970 2012 2037 2064 2090 2100 2100 2100 2091 2058 2023 1989 1955 1920 1886 1860 1894 1932 1980 2000 2000 2000 2000 1976 1929 1888 1860 1868 1895 1970 2015 2041 2067 2093 2113 2136 2158 2169 2167 2153 2142 2120 2103 2100 2103 2114 2121 2122 2119 2114 2108 2102 2086 2058 2030 2006 1987 1970 1950 1931 1909 1888 1869 1849 1829 1811 1787 1755 1723 1680 1613 1558 1511 1525 1582 1624 1663 1698 1735 1776 1808 1835 1865 1894 1920 1945 1967 1989 2001 2005 2013 2031 2014 2007 2004 2003 2000 1985 1949 1912 1889 1840 1799 1783 1762 1746 1725 1718 1697 1676 1650 1624 1591 1550 1510 1485 1463 1455 1459 1475 1492 1541 1675 1739 1784 1818 1852 1888 1917 1946 1974 1999 2005 2010 2000 1968 1931 1897 1877 1853 1826 1793 1743 1745 1785 1806 1812 1804 1790 1774 1760 1747 1732 1717 1703 1683 1656 1632 1610 1593 1582 1576 1572 1570 1572 1582 1594 1606 1627 1645 1660 1679 1695 1690 1699 1719 1761 1793 1800 9999
2169 2170 2143 2107 2094 2094 2141 2196 2140 2115 2111 2110 2100 2093 2080 2065 2051 2034 2013 1975 1921 1900 1900 1900 1913 1994 2021 2046 2070 2091 2100 2100 2096 2072 2042 2011 1978 1944 1910 1884 1885 1921 1961 1999 2000 2000 2000 1999 1999 1946 1897 1879 1883 1914 1961 1997 2024 2048 2075 2101 2120 2143 2166 2176 2176 2163 2139 2119 2117 2121 2127 2126 2121 2113 2106 2101 2082 2058 2029 2001 1985 1973 1959 1944 1927 1908 1889 1869 1848 1827 1809 1793 1759 1725 1681 1614 1558 1513 1532 1589 1635 1680 1717 1750 1787 1810 1834 1863 1889 1911 1929 1950 1971 1992 2003 2012 2044 2035 2004 1997 1996 1986 1951 1913 1898 1887 1842 1811 1802 1796 1785 1769 1752 1725 1695 1667 1635 1599 1559 1519 1491 1471 1456 1460 1474 1489 1517 1619 1712 1756 1798 1834 1874 1910 1936 1962 1987 2005 2021 2020 2001 1965 1930 1898 1871 1840 1804 1786 1791 1815 1830 1835 1825 1810 1794 1780 1766 1750 1734 1721 1705 1681 1655 1627 1604 1597 1595 1593 1591 1582 1578 1580 1589 1599 1615 1633 1659 1684 1698 1718 1755 1791 1800 1800 9999
2153 2145 2118 2097 2091 2092 2123 2194 2132 2098 2094 2099 2091 2071 2049 2030 2016 2007 1985 1942 1900 1900 1900 1900 1930 2002 2022 2042 2063 2081 2093 2092 2079 2054 2023 1995 1964 1929 1904 1895 1913 1953 1999 2005 2006 2007 2006 2004 2001 1969 1916 1897 1898 1931 1966 1994 2003 2028 2055 2081 2104 2126 2155 2176 2182 2177 2154 2136 2135 2132 2127 2117 2109 2102 2091 2063 2039 2018 1998 1978 1963 1952 1942 1930 1917 1900 1880 1861 1841 1821 1805 1800 1769 1730 1683 1615 1559 1517 1540 1597 1647 1696 1728 1760 1792 1805 1823 1846 1868 1888 1909 1929 1950 1974 1997 2019 2059 2065 2031 2000 1992 1975 1943 1909 1899 1892 1871 1854 1839 1830 1819 1803 1781 1752 1716 1681 1645 1607 1568 1529 1495 1479 1460 1458 1472 1487 1499 1576 1675 1733 1774 1812 1854 1895 1919 1944 1969 1995 2017 2035 2024 1997 1964 1930 1894 1856 1818 1805 1814 1840 1857 1860 1849 1833 1816 1800 1784 1766 1751 1735 1718 1701 1671 1635 1607 1604 1614 1618 1614 1604 1596 1589 1585 1589 1596 1610 1640 1672 1700 1734 1766 1798 1800 1800 9999
2134 2121 2101 2088 2090 2096 2116 2191 2151 2097 2091 2098 2086 2061 2030 2004 1999 1994 1942 1904 1900 1900 1900 1900 1947 2008 2025 2043 2060 2074 2082 2078 2061 2037 2009 1976 1943 1911 1897 1913 1962 2001 2009 2017 2019 2020 2019 2016 2011 1991 1928 1899 1904 1941 1973 1994 2000 2006 2032 2060 2091 2115 2142 2170 2186 2179 2153 2136 2130 2120 2110 2102 2087 2064 2039 2015 1995 1981 1968 1952 1940 1928 1918 1912 1901 1879 1859 1846 1830 1814 1801 1800 1782 1728 1674 1620 1565 1520 1553 1606 1655 1704 1730 1760 1787 1800 1808 1817 1835 1853 1886 1908 1934 1964 1993 2036 2083 2098 2071 2028 2004 1993 1983 1970 1954 1941 1914 1891 1876 1863 1847 1828 1807 1778 1738 1697 1658 1617 1577 1535 1497 1482 1465 1457 1467 1481 1494 1539 1630 1714 1753 1789 1827 1863 1899 1926 1953 1978 2003 2034 2047 2025 1998 1961 1916 1874 1845 1840 1851 1871 1885 1884 1872 1855 1839 1820 1798 1782 1765 1748 1729 1707 1663 1614 1610 1636 1645 1647 1642 1631 1622 1607 1597 1592 1593 1598 1622 1659 1696 1724 1755 1782 1800 1800 9999
2117 2105 2074 2043 2048 2074 2102 2174 2179 2126 2099 2097 2085 2059 2029 2004 1999 1998 1954 1911 1900 1900 1900 1900 1970 2012 2033 2051 2066 2077 2082 2075 2052 2025 1998 1948 1917 1904 1916 1961 2003 2013 2021 2029 2035 2036 2034 2030 2022 2004 1953 1911 1912 1954 1983 2000 2000 2000 2015 2045 2079 2103 2128 2165 2190 2177 2149 2126 2111 2100 2081 2060 2040 2017 1990 1974 1961 1947 1933 1923 1913 1905 1888 1876 1862 1843 1827 1820 1813 1804 1796 1781 1765 1719 1672 1626 1576 1524 1552 1611 1667 1702 1723 1748 1768 1783 1797 1799 1798 1824 1873 1909 1940 1974 2006 2053 2099 2106 2105 2063 2042 2030 2024 2019 2015 2005 1981 1954 1918 1892 1873 1851 1826 1795 1752 1708 1667 1624 1580 1536 1497 1483 1466 1458 1462 1475 1488 1498 1585 1690 1733 1768 1797 1833 1873 1909 1933 1957 1986 2016 2052 2056 2026 1987 1939 1893 1878 1880 1886 1901 1911 1907 1894 1877 1858 1837 1816 1798 1778 1755 1729 1702 1645 1618 1642 1676 1678 1676 1669 1659 1650 1634 1618 1602 1597 1598 1607 1643 1677 1706 1733 1764 1800 1800 9999
2103 2076 2027 1999 2008 2042 2085 2141 2189 2176 2136 2108 2095 2080 2055 2031 2025 2017 1998 1961 1924 1900 1900 1923 1990 2018 2040 2061 2078 2089 2096 2091 2058 2018 1983 1929 1908 1923 1963 2001 2015 2026 2034 2042 2052 2054 2052 2046 2033 2008 1967 1915 1926 1964 1993 2000 2000 2000 2009 2037 2069 2094 2124 2174 2193 2175 2128 2109 2091 2051 2034 2013 1994 1975 1951 1935 1924 1914 1899 1883 1868 1853 1835 1823 1811 1799 1790 1782 1777 1767 1755 1742 1731 1701 1666 1623 1578 1528 1554 1609 1670 1700 1712 1727 1744 1770 1794 1799 1808 1840 1892 1927 1961 1992 2032 2079 2120 2147 2132 2096 2083 2069 2057 2051 2046 2033 2019 2007 1982 1934 1893 1865 1834 1803 1761 1718 1674 1628 1583 1539 1498 1484 1468 1460 1461 1470 1481 1492 1536 1650 1715 1746 1774 1802 1842 1879 1908 1937 1967 1997 2032 2064 2055 2013 1967 1912 1898 1897 1904 1925 1935 1930 1915 1897 1877 1854 1833 1811 1785 1754 1721 1688 1641 1653 1690 1713 1714 1707 1696 1686 1677 1661 1642 1624 1608 1599 1602 1625 1658 1685 1711 1744 1777 1800 9999
2071 2051 2010 1992 2000 2037 2071 2109 2165 2187 2177 2145 2127 2106 2086 2065 2055 2038 2020 1998 1953 1900 1899 1945 2001 2024 2048 2070 2089 2101 2104 2100 2056 2009 1960 1920 1923 1961 1998 2014 2028 2039 2049 2056 2065 2072 2069 2061 2038 2010 1964 1913 1926 1984 2002 2011 2018 2023 2026 2049 2077 2095 2106 2172 2197 2158 2108 2085 2051 2007 1999 1985 1962 1935 1911 1899 1891 1875 1853 1830 1809 1795 1785 1773 1762 1752 1746 1734 1724 1715 1713 1703 1695 1683 1653 1615 1573 1533 1557 1607 1652 1677 1698 1704 1729 1766 1795 1809 1843 1877 1912 1947 1983 2017 2055 2102 2157 2196 2181 2155 2128 2108 2093 2083 2075 2062 2048 2030 2010 1974 1899 1870 1841 1810 1771 1727 1682 1638 1594 1549 1505 1487 1471 1464 1464 1472 1481 1490 1513 1617 1700 1727 1756 1783 1808 1845 1885 1920 1947 1975 2008 2054 2074 2045 2000 1939 1898 1907 1930 1953 1960 1953 1936 1916 1893 1870 1847 1823 1796 1757 1718 1682 1659 1703 1732 1754 1757 1749 1732 1717 1702 1682 1662 1647 1627 1613 1607 1611 1630 1658 1688 1718 1749 1779 9999
